0 0 0 0 0 0 0 0 0 0 0 0 0 0 0 0 0 0 0 0 0 0 0 0 0 0 0 0 0 0 0 0 0 0 0 0 0 0 0 0 0 0 0 0 0 0 0 0 0 0 0 0 0 0 0 0 0 0 0 0 0 0 0 0 0 0 0 0 0 0 0 0 0 0 0 0 0 0 0 0 0 0 0 0 0 0 0 0 0 0 0 0 0 0 0 0 0 0 0 0 0 0 0 0 0 0 0 0 0 0 0 15 55 152 154 263 152 280 269 45 0 0 0 115 1 0 0 0 0 0 0 0 0 0 0 0 0 0 0 0 0 0 0 0 0 0 0 0 0 0 0 0 0 0 0 0 0 0 0 0 0 0 0 0 0 0 0 0 0 0 0 0 0 0 0 0 0 0 0 0 0 0 0 0 0 0 0 0 0 0 0 0 0 0 0 0 0 0 0 0 0 0 0 0 0 0 0 0 0 0 0 0 0 0 0 0 0 0 0 0 0 0 0 0 0 0 0 0 0 0 0 0 0 0 0 0 0 0 0 0 0 0 0 0 0 0 0 30 325 853 1012 1247 1393 1551 1691 1830 1980 2045 2113 2142 2159 2214 2271 2313 2438 2556 2648 2741 2769 2809 2843 2872 2892 2899 2905 2910 2913 2920 2926 2929 2927 2918 2902 2891 2887 2866 2829 2789 2760 2725 2630 2566 2522 2450 2406 2359 2315 2282 2250 2216 2194 2133 2034 1965 1869 1574 1259 1247 1280 1191 1513 956 1159 967 626 662 856 1024 884 0 355 0 0 0 0 0 0 0 0 0 0 0 0 0 0 0 0 0 0 0 0 0 0 0 0 0 0 0 0 0 0 0 0 0 0 0 0 0 0 0 0 0 0 0 0 0 0 0 0 0 0 0 0 0 0 0 0 0 0 0 0 0 0 0 0 0 0 0 0 0 0 0 0 0 0 0 0 0 0 0 0 0 0 0 0 0 0 0 0 0 0 0 0 0 0 0 0 0 0 0 0 0 0 0 0 0 0 0 0 0 0 0 0 0 0 0 0 0 0 0 0 0 0 0 0 0 0 0 0 0 0 0 0 0 0 0 0 0 0 0 0 0 0 0 0 0 0 0 0 0 20 0 649 538 190 385 13 1 0 0 0 0 0 0 0 0 0 0 0 0 0 0 0 0 0 0 0 0 0 0 0 0 0 0 0 0 0 0 0 0 0 0 0 0 0 0 0 0 0 0 0 0 0 0 0 0 0 0 0 0 0 0 0 10 18 42 119 125 152 143 162 171 220 278 254 205 154 308 223 306 332 147 460 474 232 282 118 193 127 5 69 35 139 5 5 102 73 56 77 176 103 90 117 117 97 127 118 86 4 30 0 0 0 14 47 110 0 0 0 0 0 0 0 0 0 0 0 0 0 0 0 0 0 0 0 0 0 0 0 0 0 0 0 0 0 0 0 0 0 0 0 0 0 0 0 0 0 0 0 0 0 0 0 0 0 0 0 0 0 0 0 10 0 0 0 0 0 0 0 0 0 0 0 0 0 0 0 0 0 0 0 0 0 0 0 0 0 0 0 0 0 0 0 0 0 0 0 0 0 0 0 0 0 0 0 0 0 0 0 0 0 0 0 0 0 0 0 0 0 0 0 0 0 0 0 0 0 0 0 0 0 0 0 0 0 0 0 0 0 0
0 0 0 0 0 0 0 0 0 0 0 0 0 0 0 0 0 0 0 0 0 0 0 0 0 0 0 0 0 0 0 0 0 0 0 0 0 0 0 0 0 0 0 0 0 0 0 0 0 0 0 0 0 0 0 0 0 0 0 0 0 0 0 0 0 0 0 0 0 0 0 0 0 0 0 0 0 0 0 0 0 0 0 0 0 0 0 0 0 0 0 0 0 0 0 0 0 0 0 0 0 0 0 0 0 0 0 0 0 0 0 0 12 189 152 152 147 195 204 129 159 223 295 305 340 290 185 152 0 0 0 0 0 0 0 0 0 0 0 0 0 0 0 0 0 0 0 1 1 11 0 0 0 0 0 0 0 0 5 34 155 0 113 162 121 231 0 0 0 2 197 305 242 204 301 305 305 311 338 0 0 0 0 0 0 326 300 305 302 374 0 0 0 0 0 1 1 0 1 1 0 0 0 0 0 0 0 0 0 0 0 0 0 0 0 0 0 0 0 0 0 0 0 0 0 0 0 0 0 0 0 0 0 0 0 0 0 0 0 0 0 0 0 0 0 0 0 1 294 830 1259 1443 1473 1682 1947 2016 2130 2173 2222 2209 2200 2212 2261 2311 2433 2534 2617 2704 2738 2780 2825 2856 2878 2895 2906 2925 2935 2956 2974 2989 3002 3012 3012 3000 2988 2956 2920 2898 2873 2821 2772 2747 2731 2683 2640 2591 2513 2443 2407 2291 2201 2057 2124 2096 1549 1128 1573 1634 1520 296 702 0 0 1250 1031 662 0 261 290 0 0 0 0 0 0 0 0 0 0 0 0 0 0 0 0 0 0 0 0 0 0 0 0 0 0 0 0 0 0 0 0 0 0 0 0 0 0 0 0 0 0 0 0 0 0 0 0 0 0 0 0 0 0 0 0 0 0 0 0 0 0 0 0 0 0 0 0 0 0 0 0 0 0 0 0 0 0 0 0 0 0 0 0 0 0 0 0 0 0 0 0 0 0 0 0 0 0 0 0 0 0 0 0 0 0 0 0 0 0 0 0 0 0 0 0 0 0 0 0 0 0 0 0 0 0 0 0 0 0 0 0 0 0 0 0 0 0 0 0 0 0 0 0 0 0 0 0 32 194 226 41 531 450 474 295 0 0 0 0 0 0 0 0 0 0 0 0 0 0 0 0 0 0 0 0 0 0 0 0 0 0 0 0 0 0 0 0 0 0 0 0 0 0 0 0 0 0 0 0 0 0 0 0 0 0 0 0 0 0 5 0 39 56 26 7 9 122 191 54 117 191 52 56 101 58 199 501 256 29 99 374 213 133 15 47 161 126 69 90 78 110 23 91 80 71 103 155 97 85 96 67 65 58 62 40 109 38 0 0 57 29 0 14 3 0 0 0 0 0 0 0 0 0 0 0 0 0 0 0 0 0 0 0 0 0 0 0 0 4 1 0 0 0 0 0 0 0 0 0 0 0 0 0 0 0 0 0 0 0 0 0 0 0 0 0 0 0 0 0 0 0 0 3 20 33 15 0 0 0 0 0 0 0 0 0 0 0 0 0 0 0 0 0 0 0 0 0 0 0 0 0 0 0 0 0 0 0 0 0 0 0 0 0 0 0 0 0 0 0 0 0 0 0 0 0 0 0 0 0 0 0 0 0 0 0 0 0 0 0 0 0 0 0 0 0 0 0 0 0 0
0 0 0 0 0 0 0 0 0 0 0 0 0 0 0 0 0 0 0 0 0 0 0 0 0 0 0 0 0 0 0 0 0 0 0 0 0 0 0 0 0 0 0 0 0 0 0 0 0 0 0 0 0 0 0 0 0 0 0 0 0 0 0 0 0 0 0 0 0 0 0 0 0 0 0 0 0 0 0 0 0 0 0 0 0 0 0 0 0 0 0 0 0 0 0 0 0 0 0 0 0 0 0 0 0 0 0 0 0 0 0 84 232 124 158 146 255 247 300 256 162 151 152 161 160 146 37 0 0 32 154 23 0 0 0 0 0 0 0 0 0 0 0 0 40 1 8 0 9 101 22 0 0 0 0 0 0 0 0 3 91 152 86 76 0 0 1 0 0 301 462 273 305 237 302 293 273 0 0 0 0 0 161 283 287 305 300 0 0 0 305 565 475 189 677 682 917 938 0 0 150 1219 1457 1226 1219 795 196 0 0 0 0 0 0 0 0 0 0 0 0 0 0 0 0 0 0 0 0 0 0 0 0 0 0 0 0 0 0 0 0 0 0 0 0 0 0 0 0 1 0 0 607 1140 1217 1318 1459 1634 1724 1846 1918 1965 1990 2131 2239 2294 2398 2492 2592 2671 2715 2761 2807 2843 2877 2901 2934 2979 3002 3033 3048 3054 3067 3093 3117 3128 3127 3109 3072 3040 2973 2917 2884 2849 2832 2805 2790 2776 2723 2593 2568 2406 2260 1942 1963 1658 1512 327 403 128 0 1832 1125 1009 11 0 0 0 0 0 0 0 0 0 0 0 0 0 0 0 0 0 0 0 0 0 0 0 0 0 0 0 0 0 0 0 0 0 0 0 0 0 0 0 0 0 0 0 0 0 0 0 0 0 0 0 0 0 0 0 0 0 0 0 0 0 0 0 0 0 0 0 0 0 0 0 0 0 0 0 0 0 0 0 0 0 0 0 0 0 0 0 0 0 0 0 0 0 0 0 0 0 0 0 0 0 0 0 0 0 0 0 0 0 0 0 0 0 0 0 0 0 0 0 0 0 0 0 0 0 0 0 0 0 0 0 0 0 0 0 0 0 0 0 0 0 0 0 0 0 0 0 0 0 0 0 0 0 1 296 131 34 529 416 322 0 0 0 0 0 0 0 0 0 0 0 0 0 0 0 0 0 0 0 0 0 0 0 0 0 0 0 6 7 7 0 0 0 0 0 0 0 0 0 0 0 0 0 0 0 0 0 0 6 175 205 281 299 105 287 297 54 143 32 30 138 70 17 9 10 49 6 23 37 99 93 90 57 20 22 18 18 16 13 72 75 65 24 32 114 41 47 101 70 108 137 46 108 43 95 107 67 22 15 0 0 0 0 0 37 23 34 40 43 72 49 17 11 9 13 14 17 10 24 66 105 99 29 11 0 0 0 0 0 0 0 0 0 0 9 14 5 2 1 1 1 1 1 1 1 0 0 0 0 0 0 0 0 0 0 0 0 0 0 0 0 0 0 0 0 0 0 0 0 0 0 0 0 54 0 0 0 0 0 0 0 0 0 0 0 0 0 0 0 0 0 0 0 0 0 0 0 0 0 0 0 0 0 0 0 0 0 0 0 0 0 0 0 0 0 0 0 0 0 0 0 0 0 0 0 0 0 0 0 0 0 0 0 0 0 0 0 0 0 0 0 0 0 0 0 0 0
0 0 0 0 0 0 0 0 0 0 0 0 0 0 0 0 0 0 0 0 0 0 0 0 0 0 0 0 0 0 0 0 0 0 0 0 0 0 0 0 0 0 0 0 0 0 0 0 0 0 0 0 0 0 0 0 0 0 0 0 0 0 0 0 0 0 0 0 0 0 0 0 0 0 0 0 0 0 0 0 0 0 0 0 0 0 0 0 0 0 0 0 0 0 0 0 0 0 0 0 0 0 0 0 0 0 0 0 0 0 22 113 246 270 150 260 134 129 280 202 144 32 0 0 73 260 75 246 166 181 146 0 1 18 164 229 228 1 0 26 1 320 0 0 150 205 162 84 79 1 0 0 0 0 0 29 26 8 6 7 45 58 14 20 6 5 210 0 0 308 7 37 83 0 0 0 0 0 0 0 0 148 244 154 165 184 0 0 0 426 612 604 293 601 584 607 701 493 464 0 0 0 0 0 148 872 544 0 0 0 0 0 0 0 0 0 0 0 0 0 0 0 0 0 0 0 0 0 0 0 0 0 0 0 0 0 0 0 0 0 0 0 0 0 0 0 0 0 145 141 352 604 691 1016 1155 1359 1548 1770 2081 2162 2164 2201 2345 2485 2513 2529 2576 2644 2697 2759 2793 2816 2843 2890 2924 2998 3036 3062 3073 3086 3110 3145 3184 3203 3203 3196 3165 3119 3083 3064 3027 2894 2868 2822 2807 2759 2613 2498 2428 2351 2335 2190 1929 1720 1275 1035 1398 937 1523 610 403 1112 580 600 0 0 0 0 0 0 0 0 0 0 0 0 0 0 0 0 0 0 0 0 0 0 0 0 0 0 0 0 0 0 0 0 0 0 0 0 0 0 0 0 0 0 0 0 0 0 0 0 0 0 0 0 0 0 0 0 0 0 0 0 0 0 0 0 0 0 0 0 0 0 0 0 0 0 0 0 0 0 0 0 0 0 0 0 0 0 0 0 0 0 0 0 0 0 0 0 0 0 0 0 0 0 0 0 0 0 0 0 0 0 0 0 0 0 0 0 0 0 0 0 0 0 0 0 0 0 0 0 0 0 0 0 0 0 0 0 0 0 0 0 0 0 0 0 0 0 0 0 0 0 0 33 110 11 46 381 369 108 0 0 0 0 0 0 0 0 0 0 0 0 0 0 0 0 0 0 0 0 0 0 0 0 0 0 11 18 17 9 25 16 12 1 0 0 0 0 20 0 0 0 0 0 0 0 0 0 0 13 121 214 210 230 151 120 68 54 18 163 92 107 104 33 91 91 30 43 101 72 20 26 123 21 119 125 53 122 14 46 13 183 80 126 146 92 74 8 6 25 46 36 43 117 80 78 35 1 18 25 45 66 80 71 6 43 53 10 30 65 58 31 61 49 49 13 53 76 33 32 18 19 22 22 36 90 12 94 74 66 36 13 60 205 198 2 60 5 1 14 1 1 3 3 3 1 3 0 0 0 0 0 0 0 0 0 0 0 0 0 0 0 0 0 0 0 0 0 0 0 49 10 18 11 13 1 0 0 0 0 0 0 0 0 0 0 0 0 0 0 0 0 0 0 0 0 0 0 0 0 0 0 0 0 0 0 0 0 0 0 0 0 0 0 0 0 0 0 0 0 0 0 0 0 0 0 0 0 0 0 0 0 0 0 0 0 0 0 0 0 0 0 0 0 0 0 0 0
0 0 0 0 0 0 0 0 0 0 0 0 0 0 0 0 0 0 0 0 0 0 0 0 0 0 0 0 0 0 0 0 0 0 0 0 0 0 0 0 0 0 0 0 0 0 0 0 0 0 0 0 0 0 0 0 0 0 0 0 0 0 0 0 0 0 0 0 0 0 0 0 0 0 0 0 0 0 0 0 0 0 0 0 0 0 0 0 0 0 0 0 0 0 0 0 0 0 0 0 0 0 0 0 0 0 0 0 0 60 260 158 157 189 247 170 154 165 175 145 0 0 0 287 121 171 203 143 152 246 197 180 155 267 185 160 278 290 379 341 340 305 19 0 0 49 169 239 148 46 0 0 0 0 0 0 0 0 0 15 33 72 132 44 123 144 148 0 0 0 315 178 0 0 0 0 0 0 0 0 0 62 163 260 152 220 212 0 0 69 152 154 304 152 361 195 200 109 130 166 67 308 1 759 1086 878 870 1186 0 0 0 0 0 0 0 0 0 0 0 0 0 0 0 0 0 0 0 0 0 0 0 0 0 0 0 0 0 0 0 0 0 0 0 0 0 0 0 0 0 560 0 605 544 569 1186 1739 1788 1879 1975 1992 2029 2123 2188 2300 2353 2427 2464 2543 2572 2599 2651 2707 2742 2778 2838 2885 2896 2924 2970 3011 3043 3053 3076 3102 3111 3119 3109 3083 3054 3033 2959 2894 2846 2737 2629 2537 2405 2319 2212 1977 1806 1524 1369 2279 0 1785 0 2013 1699 139 1348 629 62 0 0 0 0 0 0 0 0 0 0 0 0 0 0 0 0 0 0 0 0 0 0 0 0 0 0 0 0 0 0 0 0 0 0 0 0 0 0 0 0 0 0 0 0 0 0 0 0 0 0 0 0 0 0 0 0 0 0 0 0 0 0 0 0 0 0 0 0 0 0 0 0 0 0 0 0 0 0 0 0 0 0 0 0 0 0 0 0 0 0 0 0 0 0 0 0 0 0 0 0 0 0 0 0 0 0 0 0 0 0 0 0 0 0 0 0 0 0 0 0 0 0 0 0 0 0 0 0 0 0 0 0 0 0 0 0 0 0 0 0 0 0 0 0 0 0 0 0 0 0 0 0 286 412 322 316 311 139 0 0 0 0 0 0 0 0 0 0 0 0 0 0 0 0 0 0 0 0 0 0 0 0 0 0 8 15 32 44 21 38 30 24 0 0 0 0 0 17 0 0 0 0 7 8 13 23 18 5 0 0 0 0 4 105 59 35 62 30 64 21 63 44 72 60 32 58 87 88 63 58 76 25 36 15 23 26 165 107 60 23 40 51 92 86 96 42 63 77 72 87 37 35 16 9 32 118 30 71 122 196 238 310 363 291 313 225 154 122 23 36 118 141 82 51 24 104 70 60 77 52 69 72 50 70 49 61 60 57 66 123 132 127 132 91 120 295 262 279 143 151 17 219 317 4 3 1 0 0 0 0 0 0 0 0 0 0 0 0 0 0 0 0 0 0 0 0 0 10 95 39 39 18 16 14 5 21 8 32 1 1 1 4 2 2 10 2 0 0 0 0 0 0 0 0 0 0 0 0 0 0 0 0 0 0 0 0 0 0 0 0 0 0 0 0 0 0 0 0 0 0 0 0 0 0 0 0 0 0 0 0 0 0 0 0 0 0 0 0 0 0 0 0 0 0 0 0 0
0 0 0 0 0 0 0 0 0 0 0 0 0 0 0 0 0 0 0 0 0 0 0 0 0 0 0 0 0 0 0 0 0 0 0 0 0 0 0 0 0 0 0 0 0 0 0 0 0 0 0 0 0 0 0 0 0 0 0 0 0 0 0 0 0 0 0 0 0 0 0 0 0 0 0 0 0 0 0 0 0 0 0 0 0 0 0 0 0 0 0 0 0 0 0 0 0 0 0 0 0 0 0 0 0 0 0 0 0 0 15 256 198 264 244 304 282 203 305 0 0 0 301 347 319 295 203 308 306 290 271 349 271 267 357 313 180 308 318 393 365 169 153 0 0 5 82 151 135 52 1 0 0 0 0 0 0 0 0 0 2 9 26 10 91 64 2 0 0 1 43 0 0 0 0 0 0 0 0 0 41 183 216 182 203 244 199 0 0 82 185 46 320 222 243 365 320 81 182 594 603 520 270 146 257 565 1278 733 305 1232 406 0 0 0 0 0 0 0 0 0 0 0 0 0 0 0 0 0 0 0 0 0 0 0 0 0 0 0 0 0 0 0 0 0 0 0 0 0 220 596 1012 990 1085 0 456 825 1966 1517 1399 1815 1910 2009 2105 2174 2280 2363 2441 2491 2523 2572 2604 2663 2713 2745 2794 2844 2866 2896 2927 2972 3010 3039 3054 3074 3083 3093 3090 3075 3055 3039 2983 2901 2871 2772 2648 2537 2439 2342 2152 1782 1512 1518 536 1483 0 1343 1749 2201 2167 2084 1535 425 283 314 0 0 0 0 0 0 0 0 0 0 0 0 0 0 0 0 0 0 0 0 0 0 0 0 0 0 0 0 0 0 0 0 0 0 0 0 0 0 0 0 0 0 0 0 0 0 0 0 0 0 0 0 0 0 0 0 0 0 0 0 0 0 0 0 0 0 0 0 0 0 0 0 0 0 0 0 0 0 0 0 0 0 0 0 0 0 0 0 0 0 0 0 0 0 0 0 0 0 0 0 0 0 0 0 0 0 0 0 0 0 0 0 0 0 0 0 0 0 0 0 0 0 0 0 0 0 0 0 0 0 0 0 0 0 0 0 0 0 0 0 0 0 0 0 0 0 0 0 0 56 98 93 242 301 277 232 124 0 0 0 0 0 0 0 0 0 0 0 0 0 0 0 0 0 0 0 0 0 0 0 0 0 0 17 29 36 33 18 17 12 9 0 0 43 36 10 13 0 27 20 25 0 5 25 25 19 24 20 0 0 0 0 1 29 46 26 20 92 58 50 64 65 60 20 20 19 19 27 82 155 23 66 96 93 57 57 41 17 56 119 57 82 78 58 68 57 36 95 27 6 6 37 40 170 120 141 299 340 290 289 229 225 281 155 145 220 135 21 34 76 99 341 125 93 10 121 79 114 82 83 110 69 56 89 89 103 74 82 109 87 70 82 96 52 97 45 153 325 218 128 3 86 139 0 1 0 0 0 0 0 0 0 1 0 0 0 0 0 0 0 0 0 0 0 0 0 6 39 13 22 26 29 28 22 6 6 1 1 1 24 17 19 12 3 2 1 0 0 0 0 0 0 0 0 0 0 0 0 0 0 0 0 0 0 0 0 0 0 0 0 0 0 0 0 0 0 0 0 0 0 0 0 0 0 0 0 0 0 0 0 0 0 0 0 0 0 0 0 0 0 0 0 0 0 0 0
168 116 56 22 12 0 0 0 0 0 0 0 0 0 0 0 0 0 0 0 0 0 0 0 0 0 0 0 0 0 0 0 0 0 0 0 0 0 0 0 0 0 0 0 0 0 0 0 0 0 0 0 0 0 0 0 0 0 0 0 0 0 0 0 0 0 0 0 0 0 0 0 0 0 0 0 0 0 0 0 0 0 0 0 0 0 0 0 0 0 0 0 0 0 0 0 0 0 0 0 0 0 0 0 0 0 0 0 0 0 0 0 0 274 91 67 0 0 0 0 0 0 0 0 0 0 0 158 153 305 305 305 153 154 298 305 306 303 279 201 180 157 91 100 12 25 59 97 91 74 59 0 0 0 0 0 0 0 0 0 0 0 1 0 0 0 0 0 0 199 322 152 152 27 0 0 0 0 0 0 0 93 29 81 72 142 146 121 135 47 0 36 57 240 97 183 312 238 253 136 304 481 592 601 610 349 327 630 411 854 621 341 336 250 286 958 405 0 0 0 0 0 0 0 0 0 0 0 0 0 0 0 0 0 0 0 0 0 0 0 0 0 0 0 0 0 0 0 0 0 0 0 0 0 1211 412 0 602 1211 1590 1632 1647 1810 1991 2155 2247 2320 2413 2438 2495 2585 2627 2682 2734 2770 2836 2866 2901 2932 2968 3004 3035 3050 3061 3068 3081 3092 3096 3092 3074 3048 2976 2932 2884 2828 2777 2770 2576 2358 2137 2138 2296 1538 1871 856 1772 2336 1340 445 0 0 330 311 297 278 914 180 0 0 0 0 0 0 0 0 0 0 0 0 0 0 0 0 0 0 0 0 0 0 0 0 0 0 0 0 0 0 0 0 0 0 0 0 0 0 0 0 0 0 0 0 0 0 0 0 0 0 0 0 0 0 0 0 0 0 0 0 0 0 0 0 0 0 0 0 0 0 0 0 0 0 0 0 0 0 0 0 0 0 0 0 0 0 0 0 0 0 0 0 0 0 0 0 0 0 0 0 0 0 0 0 0 0 0 0 0 0 0 0 0 0 0 0 0 0 0 0 0 0 0 0 0 0 0 0 0 0 0 0 0 0 0 0 0 0 0 0 0 0 0 0 0 0 0 0 24 22 146 76 119 151 113 0 0 0 0 0 0 0 0 0 0 0 0 0 0 0 0 0 0 0 0 0 0 0 8 31 3 50 48 48 49 34 6 0 0 36 7 20 26 20 0 0 0 17 0 14 31 20 46 19 90 18 75 44 0 0 127 86 46 44 45 76 93 72 91 23 62 41 69 116 76 40 20 37 47 29 30 95 42 41 65 46 38 48 96 56 53 53 40 86 77 55 75 106 260 104 350 298 326 310 265 295 211 344 428 311 309 259 379 377 122 94 90 115 209 187 93 150 76 128 86 88 45 86 109 124 50 54 79 73 29 111 132 203 9 341 287 349 419 175 324 280 229 212 679 157 229 165 0 0 0 0 0 27 33 12 12 18 22 16 15 15 17 13 0 1 6 38 22 9 57 33 15 21 18 10 5 6 7 9 32 21 6 15 18 26 15 2 1 8 1 6 0 0 0 0 0 0 0 0 0 0 0 0 0 0 0 0 0 0 0 0 0 0 0 0 0 0 0 0 0 0 0 0 0 0 0 0 0 0 0 0 0 0 0 0 0 0 0 0 0 0 0 0 0 0 0 0 155
0 0 0 0 0 0 0 0 0 0 0 0 0 0 0 0 0 0 0 0 0 0 0 0 0 0 0 0 0 0 0 0 0 0 0 0 0 0 0 0 0 0 0 14 25 25 10 4 4 1 1 0 7 7 1 1 0 0 0 0 0 0 0 0 0 0 0 0 0 0 0 0 0 0 0 0 0 0 0 0 0 0 0 0 0 0 0 0 0 0 0 0 0 0 0 0 0 0 0 0 0 0 0 0 0 0 0 0 0 0 0 0 0 0 0 0 0 0 0 0 0 0 0 0 63 91 259 330 365 335 308 153 152 152 225 233 213 206 213 260 208 148 95 91 117 160 150 122 121 107 75 49 0 0 0 0 0 0 0 0 0 0 0 0 0 0 0 183 328 345 415 420 491 274 152 0 0 0 0 0 0 0 125 116 137 122 274 198 178 177 33 178 154 75 165 140 133 88 124 118 265 41 239 189 340 413 317 621 609 610 569 612 572 661 632 468 1555 120 0 301 120 0 0 0 0 0 0 0 0 0 0 0 0 0 0 0 0 0 0 0 0 0 0 0 0 0 0 0 0 0 0 592 108 0 0 0 0 66 405 1243 1295 1208 1331 1660 1998 2165 2327 2403 2436 2482 2544 2592 2657 2723 2768 2829 2861 2897 2921 2956 2996 3035 3053 3062 3066 3073 3080 3083 3076 3059 3035 2988 2961 2909 2859 2764 2621 2411 2026 1655 1460 1196 1999 526 202 1358 2146 1103 1164 0 0 0 227 304 258 347 0 0 0 0 0 0 0 0 0 0 0 0 0 0 0 0 0 0 0 0 0 0 0 0 0 0 0 0 0 0 0 0 0 0 0 0 0 0 0 0 0 0 0 0 0 0 0 0 0 0 0 0 0 0 0 0 0 0 0 0 0 0 0 0 0 0 0 0 0 0 0 0 0 0 0 0 0 0 0 0 0 0 0 0 0 0 0 0 0 0 40 0 150 289 240 0 0 140 1 5 0 220 0 0 0 0 0 0 0 0 0 0 0 0 0 0 0 0 0 0 0 0 0 0 0 0 0 0 0 0 0 0 0 0 0 0 0 0 0 0 0 0 0 0 0 0 0 0 0 0 0 1 50 33 62 98 66 46 7 0 0 0 0 0 0 0 0 0 0 0 0 0 0 0 0 0 0 0 0 15 18 15 30 48 48 48 1 28 10 0 0 0 30 27 21 29 20 13 14 13 10 16 15 57 54 20 21 38 60 0 0 54 81 94 35 34 53 107 83 72 51 66 30 26 35 75 81 64 50 42 22 1 15 8 17 37 25 52 44 36 64 55 45 80 90 268 396 438 335 398 328 353 336 346 377 455 442 382 368 509 547 564 433 603 510 458 267 201 151 184 25 108 150 145 158 143 188 153 161 195 187 151 209 146 82 130 133 200 186 209 298 329 291 142 99 216 259 135 223 125 260 350 188 277 454 30 0 11 31 70 20 88 117 115 65 31 13 13 12 22 27 13 15 10 34 52 30 21 17 5 6 5 1 2 6 62 17 15 5 5 5 5 51 5 2 2 3 1 9 7 2 8 25 33 8 4 8 8 19 12 6 12 16 0 0 0 0 0 0 0 0 0 0 0 0 0 0 0 0 0 0 0 0 0 0 0 0 0 0 0 0 0 0 0 0 0 0 0 0 0 0 0 0 0
0 0 0 0 0 0 0 0 0 0 0 0 0 0 0 0 0 0 0 0 0 0 0 0 0 0 0 0 0 0 0 0 0 0 0 0 11 0 35 7 47 30 27 33 35 26 12 30 27 25 55 54 45 55 56 30 8 11 8 40 42 20 15 2 0 0 0 0 0 0 0 0 0 0 0 0 0 0 0 0 0 0 0 0 0 0 0 0 0 0 0 0 0 0 0 0 0 0 0 0 0 0 0 0 37 0 0 0 0 0 0 0 0 0 0 0 0 0 0 0 0 0 0 0 0 0 0 0 0 39 130 22 68 19 0 1 23 30 48 99 125 182 141 191 180 124 152 134 159 198 137 88 67 56 42 11 1 0 0 0 0 0 0 0 0 0 0 89 161 213 371 274 304 404 226 60 180 0 0 0 0 0 0 0 1 0 0 355 434 426 226 182 326 304 213 174 123 111 91 59 8 61 0 1 0 300 306 301 233 291 658 1038 1034 539 515 391 140 278 197 607 895 0 0 0 0 0 0 0 0 0 0 0 0 0 0 0 0 0 0 0 0 0 0 0 0 0 0 0 0 0 33 975 159 0 441 539 585 867 355 682 836 992 1121 1471 1712 2019 2163 2235 2265 2367 2440 2501 2561 2614 2697 2744 2756 2823 2880 2907 2958 3010 3045 3057 3061 3065 3064 3059 3050 3040 3011 2971 2945 2898 2869 2784 2552 2236 1795 1296 651 237 927 1168 952 0 0 0 817 323 309 0 0 0 0 0 0 0 0 0 0 0 0 0 0 0 0 0 0 0 0 0 0 0 0 0 0 0 0 0 0 0 0 0 0 0 0 0 0 0 0 0 0 0 0 0 0 0 0 0 0 0 0 0 0 0 0 0 0 0 0 0 0 0 0 0 0 0 0 0 0 0 0 0 0 0 0 0 0 0 0 0 0 0 0 0 0 0 0 1 147 0 0 471 40 160 0 360 298 276 0 340 260 220 307 200 100 412 360 420 250 68 0 0 0 0 0 0 0 0 0 0 0 0 0 0 0 0 0 0 0 0 0 0 0 0 0 0 0 0 0 0 0 0 0 0 0 0 0 0 0 0 0 0 0 0 0 0 0 0 0 0 0 0 0 0 0 0 109 0 0 0 0 0 0 0 0 0 0 0 0 0 0 0 25 2 15 27 21 36 34 36 33 9 5 0 0 0 33 48 47 35 23 27 59 30 42 11 26 17 77 24 5 3 12 1 17 1 38 39 130 42 30 31 170 117 39 56 100 327 403 337 627 584 400 721 527 758 783 903 640 572 588 635 393 308 493 349 507 557 488 359 259 395 426 296 374 165 325 324 444 598 272 474 527 633 616 641 678 406 589 522 426 182 135 127 92 108 144 96 155 119 146 170 150 191 196 223 138 99 274 277 308 217 243 163 180 184 127 127 140 42 12 198 205 308 325 462 557 499 463 349 169 90 39 67 117 79 272 289 66 336 119 107 50 110 119 114 181 184 151 102 39 59 102 186 72 45 26 64 21 9 24 41 8 8 66 357 163 116 134 162 83 54 47 110 41 37 34 13 41 35 32 23 17 20 20 16 20 14 0 0 0 0 0 0 0 0 0 0 0 0 0 0 0 0 0 0 0 0 0 0 0 0 0 0 0 0 0 0 0 0 0 0 0 0 0 0 0 0
0 0 0 0 0 0 0 0 0 0 0 0 0 0 0 0 0 0 0 0 0 0 0 0 0 0 0 0 0 0 0 0 0 0 23 26 34 75 75 74 74 88 100 80 91 62 79 99 76 74 82 75 70 92 90 82 50 45 156 101 99 94 106 119 139 121 250 311 301 310 359 212 158 165 121 30 28 0 0 0 0 0 0 0 0 0 0 0 0 0 0 0 0 0 0 0 19 26 1 0 1 1 39 37 61 137 0 0 0 10 31 0 0 0 34 188 195 16 0 0 0 0 0 0 0 0 91 183 195 287 365 392 335 366 233 329 198 174 142 148 116 60 58 91 64 50 91 123 141 125 90 72 26 14 19 1 0 2 0 0 0 0 0 30 54 0 0 0 0 61 137 63 60 107 61 0 0 0 0 0 0 0 0 0 0 0 0 0 0 61 227 244 0 0 0 0 0 0 0 12 1 0 0 1 0 0 1 121 166 180 296 264 388 678 749 883 498 401 600 1284 0 358 721 289 0 22 0 0 0 0 0 0 0 0 0 0 0 0 0 0 0 0 0 0 0 0 0 0 0 0 224 812 358 382 1117 512 0 345 161 462 762 987 1362 1731 1807 1929 2066 2315 2333 2370 2423 2461 2529 2589 2633 2698 2728 2765 2828 2882 2926 2992 3044 3062 3070 3076 3073 3064 3052 3022 2962 2899 2875 2809 2745 2699 2594 2594 2594 2523 2450 2375 2436 1716 1830 1479 1498 1525 1044 1635 1493 894 1 0 0 0 0 0 0 0 0 0 0 0 0 0 0 0 0 0 0 0 0 0 0 0 0 0 0 0 0 0 0 0 0 0 0 0 0 0 0 0 0 0 0 0 0 0 0 0 0 0 0 0 0 0 0 0 0 0 0 0 0 0 0 0 0 0 0 0 0 0 0 0 0 0 0 0 0 0 0 0 0 0 0 0 0 0 62 0 416 605 1153 600 100 678 534 550 405 487 353 320 325 320 365 320 233 140 160 10 80 180 1 97 175 134 0 0 0 0 0 0 0 0 0 0 0 0 0 0 0 0 0 0 0 0 0 0 0 0 0 0 0 0 0 0 0 0 0 0 0 0 0 0 0 0 0 0 0 0 0 0 0 0 0 0 0 0 0 24 7 59 93 7 1 0 0 0 0 0 0 0 0 0 39 41 44 6 41 43 19 34 30 24 9 0 0 26 54 67 39 43 22 46 23 36 35 18 17 55 69 37 6 21 40 123 45 1 32 1 37 21 23 148 83 15 189 502 517 373 131 935 719 1134 1578 1180 876 720 175 775 856 898 764 859 582 745 897 526 577 625 578 579 359 331 298 302 278 317 390 423 573 576 602 812 449 538 475 567 804 387 289 146 388 350 209 237 193 110 142 153 180 75 117 164 177 154 195 194 144 176 291 234 282 174 212 136 96 77 45 44 28 52 148 376 547 596 363 721 845 646 888 352 195 145 108 194 344 328 472 139 120 75 360 401 290 517 889 780 725 651 474 308 370 263 328 277 154 123 59 61 47 32 49 39 14 108 35 132 61 149 206 410 147 59 8 49 51 12 106 29 15 31 12 11 17 27 23 14 11 6 0 0 0 0 0 0 0 0 0 0 0 0 0 0 0 10 3 9 0 0 40 12 214 678 390 164 21 21 16 111 53 68 89 0 0 0 0 0 0 0
0 0 0 0 0 0 0 0 0 0 0 0 0 0 0 0 0 0 0 0 0 0 0 0 0 0 0 0 0 0 0 0 0 120 137 399 181 296 425 272 356 268 316 305 330 333 307 380 230 185 181 274 255 191 185 245 188 209 214 205 260 284 280 426 433 516 907 1117 469 1135 1705 2075 1524 1028 914 1767 474 792 1041 691 457 457 34 0 0 0 0 0 1 1 44 41 39 27 1 1 49 10 32 48 54 305 179 119 121 283 218 200 243 246 269 335 366 222 496 626 609 763 548 440 365 137 15 0 0 0 0 0 0 0 0 0 0 35 89 121 150 105 121 146 149 126 171 176 151 38 0 47 25 60 11 42 48 0 61 9 13 0 0 0 0 0 1 35 61 86 82 9 0 0 0 31 13 9 46 90 182 243 0 35 0 48 0 0 0 0 0 0 0 10 213 252 298 238 17 37 63 22 0 0 0 0 3 0 0 0 0 0 0 164 6 365 285 265 365 374 457 411 590 872 444 382 102 0 223 24 0 0 0 0 0 0 0 0 0 0 0 0 0 0 0 0 0 0 0 0 0 0 0 0 0 0 0 0 0 0 0 0 0 12 388 762 1041 1321 1556 1740 1982 2134 2202 2287 2387 2461 2547 2598 2652 2718 2742 2779 2858 2903 2951 3002 3044 3060 3065 3069 3054 3031 2907 2719 2528 2411 2372 2429 2360 2408 2534 2313 2269 2073 2129 2135 2095 2134 2435 2369 1821 1472 569 489 0 0 0 0 0 0 0 0 0 0 0 0 0 0 0 0 0 0 0 0 0 0 0 0 0 0 0 0 0 0 0 0 0 0 0 0 0 0 0 0 0 0 0 0 0 0 0 0 0 0 0 0 0 0 0 0 0 0 0 0 0 0 0 0 0 0 0 0 0 0 0 0 0 0 0 0 0 0 0 0 0 0 0 0 213 266 282 120 95 106 706 818 703 690 574 386 467 350 429 330 299 260 376 310 166 143 120 199 71 253 205 156 209 167 90 140 48 187 177 149 0 0 0 0 0 0 0 0 0 0 0 0 0 0 0 0 0 0 0 0 0 0 0 0 0 0 1 70 82 31 17 0 0 0 0 0 0 0 0 0 0 0 0 0 0 0 0 0 0 0 0 17 136 163 173 245 202 104 49 1 0 0 0 0 0 0 3 28 30 23 7 23 11 10 2 0 0 10 40 20 26 0 19 26 19 52 55 43 31 66 37 54 71 70 57 44 28 56 38 38 25 1 20 119 110 277 449 74 85 157 481 52 194 1083 1221 959 1099 848 1084 1286 1186 1558 1180 1069 1183 788 1193 963 547 443 409 380 445 376 350 327 254 270 322 369 340 420 412 477 429 442 466 412 429 381 483 313 326 363 321 294 263 315 136 127 176 135 215 253 126 293 259 246 248 275 257 226 223 214 166 124 104 45 17 61 136 281 347 448 439 673 736 1323 956 751 776 633 298 326 290 324 224 269 207 324 231 391 260 344 394 369 610 422 522 581 412 192 303 215 163 218 73 182 231 114 103 73 85 48 29 16 67 131 162 39 31 34 31 29 23 16 28 25 25 36 35 49 18 67 41 35 41 22 28 20 3 2 3 60 304 467 577 307 696 414 509 215 139 232 150 56 13 0 0 0 0 0 65 230 163 461 318 217 270 484 190 273 236 463 643 102 120 62 23 0
410 37 1 0 0 0 0 0 0 0 0 0 0 0 0 0 0 0 0 0 0 0 0 0 0 0 0 164 352 131 185 243 179 335 514 425 647 713 769 920 714 855 610 539 467 547 490 369 442 475 588 701 616 441 403 468 493 490 564 646 610 837 666 610 816 1354 1666 1226 1214 1585 813 1504 830 1016 853 1077 785 662 595 725 571 371 336 389 238 243 141 163 1 0 1 1 134 72 4 161 114 155 152 263 233 187 247 231 274 279 213 172 262 199 211 366 408 536 533 518 581 713 543 674 558 533 365 181 194 182 92 114 64 95 56 1 0 9 75 119 110 133 27 26 38 0 0 0 0 34 146 103 76 0 0 0 0 0 0 22 2 0 0 0 0 0 0 0 0 30 54 60 0 0 0 0 0 6 29 213 215 161 61 0 105 78 119 104 0 0 0 0 0 158 274 308 305 214 6 6 29 5 0 0 0 0 1 0 0 0 0 0 0 1 1 1 0 73 119 316 277 340 299 413 295 349 357 323 0 0 0 0 0 0 0 0 0 0 0 0 0 0 0 0 0 0 0 0 0 0 0 0 0 0 0 0 0 0 1 0 0 0 304 554 621 742 1292 1628 1534 1661 1924 2147 2231 2337 2429 2489 2561 2607 2684 2755 2789 2854 2891 2920 2960 2999 3030 3037 3030 3020 3008 3089 2984 2582 2472 2001 1659 1086 1037 1411 1806 1827 992 1202 1506 1347 982 723 607 679 0 0 0 0 0 0 0 0 0 0 0 0 0 0 0 0 0 0 0 0 0 0 0 0 0 0 0 0 0 0 0 0 0 0 0 0 0 0 0 0 0 0 0 0 0 0 0 0 0 0 0 0 0 0 0 0 0 0 0 0 0 0 0 0 0 0 0 0 0 0 0 0 0 0 0 0 0 0 0 0 0 0 0 0 420 353 500 150 800 567 400 915 1151 810 923 675 688 497 514 483 460 454 463 425 336 280 283 330 290 140 262 302 174 143 123 96 94 74 131 131 144 172 308 283 160 214 196 183 163 0 0 0 0 0 0 0 0 0 0 0 0 0 0 0 0 0 0 0 0 0 0 0 0 0 0 0 0 0 0 4 18 0 0 0 0 0 0 0 0 6 11 5 0 0 24 7 7 39 128 128 224 126 149 86 111 108 105 146 26 0 0 0 19 23 22 45 63 31 36 25 0 0 0 44 22 52 9 18 0 20 75 47 10 67 35 16 26 42 58 108 54 101 70 63 75 27 6 48 216 390 567 235 67 161 179 147 906 340 925 1007 527 753 743 384 954 736 690 735 1176 643 899 994 765 619 383 294 445 295 355 366 208 189 192 222 261 276 470 225 217 210 232 280 295 300 281 293 223 204 191 242 193 192 176 266 271 186 256 267 237 156 99 212 280 211 257 237 137 184 106 91 229 43 53 140 270 166 114 433 692 822 1277 1538 1289 930 683 579 353 539 468 308 267 356 71 170 313 407 209 351 382 732 1111 612 557 730 518 501 386 538 120 113 43 65 54 63 35 23 65 25 65 120 70 62 64 26 50 38 39 26 39 62 49 12 15 38 40 21 44 56 50 19 17 23 5 3 4 6 4 163 147 427 153 118 164 368 604 509 518 688 488 167 367 246 150 24 17 1 21 25 112 249 606 245 368 850 437 292 410 987 966 577 754 586 763 620
1237 220 216 74 21 8 0 0 0 0 0 0 0 0 0 0 0 0 0 0 0 0 0 0 0 0 0 0 168 109 156 87 185 451 377 458 447 338 245 492 203 467 339 435 490 612 610 640 1146 1557 965 593 1377 1156 997 1122 679 825 1319 1899 1705 1705 1219 1536 788 764 897 1340 855 705 910 966 782 548 834 550 488 435 297 276 305 305 373 464 605 836 967 563 463 1 1 1 15 178 281 271 292 311 373 292 243 174 157 147 262 240 256 203 222 276 274 471 419 457 452 497 487 465 594 697 607 412 239 152 156 213 251 245 213 31 0 0 1 0 10 0 0 0 0 0 71 0 0 0 0 0 30 39 61 34 18 0 0 0 0 0 0 0 0 0 0 0 0 30 52 30 17 25 0 0 0 49 56 91 87 176 286 251 77 99 72 72 85 0 0 0 54 0 0 319 365 255 274 190 213 4 0 0 0 0 0 0 0 0 0 0 4 14 13 1 0 0 0 0 7 152 250 302 391 331 312 444 408 449 813 870 0 0 0 0 0 0 0 0 0 0 0 0 0 0 0 0 0 0 0 0 0 0 0 0 0 0 0 0 0 0 0 8 296 624 702 793 868 931 1125 1484 1814 2198 2257 2317 2392 2448 2501 2565 2669 2781 2821 2885 2897 2921 2927 2941 2947 2942 2941 2950 2951 2865 2615 2606 1956 2006 1972 1530 928 393 233 358 622 237 0 0 0 0 0 0 0 0 0 0 0 0 0 0 0 0 0 0 0 0 0 0 0 0 0 0 0 0 0 0 0 0 0 0 0 0 0 0 0 0 0 0 0 0 0 0 0 0 0 0 0 0 0 0 0 0 0 0 0 0 0 0 0 0 0 0 0 0 0 0 0 0 0 0 0 0 0 0 0 0 0 0 0 0 0 0 535 0 0 0 0 0 0 864 648 1300 1175 1564 560 522 433 482 488 418 475 442 268 293 242 242 280 260 260 260 274 275 321 294 195 127 122 91 506 338 320 158 142 207 341 249 193 247 253 252 284 229 238 201 129 0 0 0 0 0 0 0 0 0 19 91 187 115 49 0 0 0 0 0 0 0 1 55 69 104 38 66 53 18 0 1 46 74 80 32 41 174 133 129 142 35 62 219 158 194 112 30 167 181 161 202 74 444 416 324 136 168 6 9 12 54 53 49 29 27 24 29 0 0 0 0 37 38 19 27 0 5 7 14 18 21 33 33 51 85 89 64 49 31 121 104 143 106 35 39 50 39 101 72 209 531 348 890 973 818 542 250 993 828 457 825 825 929 694 658 1085 605 846 816 788 947 604 342 302 334 281 222 240 320 343 312 352 362 339 304 294 328 305 246 225 279 272 278 363 307 316 394 341 264 287 114 318 137 258 208 187 140 269 227 313 247 292 216 45 174 137 81 43 76 70 190 269 288 195 661 546 1469 1195 1630 1147 1271 1190 581 623 270 390 426 415 346 194 109 495 553 717 722 581 511 562 1008 412 1273 1260 814 538 293 98 68 80 53 44 63 48 44 55 96 42 191 221 151 107 50 56 40 37 38 24 36 75 45 47 40 27 47 72 23 17 49 86 149 29 12 3 23 3 2 59 141 47 97 120 271 398 314 457 504 643 433 675 1072 720 328 167 115 105 90 168 347 596 423 440 685 578 732 571 936 1257 719 773 628 1011 874
418 896 672 276 160 53 42 27 0 0 0 0 0 0 0 0 0 0 0 0 0 0 0 0 0 0 0 0 0 0 15 108 59 199 51 118 462 639 351 610 610 701 447 394 400 433 554 934 1150 1220 1402 1095 979 1239 771 610 1220 1340 1465 1186 705 1277 1095 744 804 1121 714 536 833 708 722 487 765 516 588 375 409 575 363 324 255 290 348 458 446 1076 737 457 644 1 1 1 31 142 192 282 229 137 138 229 169 147 157 209 264 365 276 250 268 280 219 293 314 346 375 381 457 512 563 549 504 344 260 255 188 152 56 57 34 0 0 0 0 0 0 0 0 0 62 91 91 0 0 0 85 121 91 121 91 61 69 48 48 26 0 0 0 0 0 8 0 0 0 0 0 0 29 19 0 53 77 119 152 245 274 213 265 169 248 108 147 265 264 0 0 0 30 143 254 363 309 421 395 365 246 70 0 0 0 0 0 0 0 0 0 0 43 62 41 3 0 8 1 0 1 94 144 193 295 308 321 481 361 611 894 1040 36 784 0 120 0 0 0 0 0 0 0 0 0 0 0 0 0 0 0 0 0 0 0 0 0 0 0 1 180 0 232 286 0 300 541 1087 1017 1050 1171 1488 1787 2076 2167 2287 2357 2444 2503 2581 2641 2727 2745 2775 2797 2839 2874 2895 2896 2895 2899 2898 2897 2746 2594 2329 1875 1549 1451 1200 637 0 0 0 0 0 0 0 0 0 0 0 0 0 0 0 0 0 0 0 0 0 0 0 0 0 0 0 0 0 0 0 0 0 0 0 0 0 0 0 0 0 0 0 0 0 0 0 0 0 0 0 0 0 0 0 0 0 0 0 0 0 0 0 0 0 0 0 0 0 0 0 0 0 0 0 0 0 0 0 0 0 0 0 0 0 0 0 0 0 0 0 0 0 0 0 0 720 505 793 576 875 1376 610 456 594 478 359 400 376 331 401 288 237 385 185 210 332 331 231 290 298 266 235 291 232 119 193 315 452 202 222 184 651 227 651 155 220 359 260 235 243 240 214 214 254 25 0 0 0 0 0 0 0 13 52 53 50 35 11 0 0 0 0 58 65 11 79 94 65 61 3 3 24 25 45 117 93 168 153 98 61 119 99 144 40 101 116 128 173 168 72 127 180 289 264 171 722 851 423 172 59 106 37 64 48 48 55 37 27 37 33 0 0 0 0 25 30 15 8 0 1 13 27 52 64 53 45 68 68 77 50 57 52 91 94 106 80 52 42 88 61 95 430 319 705 557 674 545 403 602 449 801 650 1030 390 779 643 714 616 911 771 820 445 621 618 467 424 236 209 207 219 295 388 315 340 340 325 323 340 281 263 334 291 346 354 383 401 309 233 238 282 410 266 160 255 221 257 116 42 267 304 292 233 356 329 83 261 279 150 170 87 93 43 85 118 151 122 204 204 221 573 749 1328 882 772 660 756 297 405 420 589 352 389 160 177 255 165 183 246 498 1370 738 859 1281 277 602 235 190 193 135 95 68 46 55 27 30 51 48 45 117 428 274 191 140 201 88 78 31 35 30 44 39 40 53 51 49 9 6 76 113 104 131 43 372 431 66 37 32 32 34 89 235 300 137 504 344 188 249 232 600 944 654 712 496 311 288 263 251 177 384 446 585 546 319 846 774 597 863 964 1066 878 1052 769 326 684
635 267 135 150 118 101 161 35 13 32 0 0 0 0 0 0 0 0 0 0 0 0 0 0 0 0 0 0 0 0 0 0 38 91 13 287 132 84 94 516 79 365 85 414 120 341 460 245 1095 1403 1095 1220 745 1133 609 659 730 927 302 442 730 942 677 547 760 1069 423 408 450 450 601 243 330 288 319 556 377 289 560 360 518 348 429 622 301 396 644 904 451 91 42 106 76 23 88 21 100 298 13 320 313 323 173 252 342 321 306 304 308 304 311 242 306 306 340 524 555 485 359 357 376 355 365 333 279 362 345 488 210 487 435 386 445 377 391 219 365 360 330 366 337 304 30 30 0 180 214 183 172 152 137 131 149 113 91 87 61 90 68 90 64 69 50 58 60 28 24 11 14 121 169 168 215 152 259 304 305 295 322 270 306 289 243 243 102 0 61 264 253 206 213 220 299 341 285 188 144 57 0 0 0 0 0 0 0 0 15 9 2 0 0 0 0 0 0 3 67 84 101 182 429 297 371 569 497 986 1302 1518 1732 584 314 718 0 0 0 0 0 0 0 0 0 0 0 0 0 0 0 0 0 0 0 0 0 587 0 728 66 361 561 312 360 857 1015 1188 1456 1660 1858 2036 2096 2234 2326 2406 2439 2483 2536 2559 2557 2531 2474 2421 2423 2418 2477 2527 2571 2770 2897 2840 2676 2345 1817 1199 992 1 0 0 0 0 0 0 0 0 0 0 0 0 0 0 0 0 0 0 0 0 0 0 0 0 0 0 0 0 0 0 0 0 0 0 0 0 0 0 0 0 0 0 0 0 0 0 0 0 0 0 0 0 0 0 0 0 0 0 0 0 0 0 0 0 0 0 0 0 0 0 0 0 0 0 0 0 0 0 0 0 0 0 0 0 0 0 0 0 0 0 0 0 0 0 0 120 1 448 779 739 796 1000 642 906 711 541 460 500 328 361 253 221 170 157 200 216 219 233 248 194 212 213 209 283 278 318 425 284 360 158 153 249 189 143 119 255 160 309 168 155 150 235 197 177 275 246 233 183 0 0 0 0 0 0 22 12 0 0 0 0 0 0 79 261 70 50 54 45 45 14 38 49 19 106 79 147 153 107 147 89 72 117 124 89 107 131 146 96 150 122 90 135 157 104 137 316 581 301 842 182 259 80 35 13 34 35 43 24 34 21 6 0 0 0 46 37 23 20 25 5 1 1 37 19 5 20 5 38 28 33 49 53 66 74 62 98 126 124 67 1 73 131 429 519 326 730 593 324 504 695 394 438 596 536 401 913 773 775 672 568 857 812 880 809 827 329 499 402 261 325 314 336 460 440 411 438 453 441 382 287 294 331 411 383 328 300 329 381 394 401 302 354 398 451 371 374 273 318 369 307 224 256 322 328 279 257 363 274 276 229 157 113 21 93 136 255 323 352 567 784 1426 1162 1289 1240 990 723 790 813 734 533 175 426 251 259 474 554 245 161 337 386 262 387 436 1561 693 1328 516 255 393 841 690 415 761 571 209 98 92 71 78 74 156 351 429 220 167 240 95 85 55 68 52 52 52 60 184 111 26 36 295 239 219 457 297 83 125 265 407 263 504 113 65 166 506 518 428 247 566 503 1264 513 645 415 417 526 500 798 1112 987 782 560 476 565 316 370 243 313 718 461 755 1074 848 563 615 796 918 801
304 578 308 298 937 287 216 625 79 69 0 0 37 5 43 299 104 0 0 0 0 0 0 0 0 0 0 0 0 0 0 0 0 0 0 6 0 1 99 208 24 28 20 34 99 40 61 93 135 119 213 261 325 302 318 283 158 209 360 670 873 939 477 405 235 185 146 135 128 135 140 142 162 313 357 332 610 718 612 834 742 579 614 415 333 411 487 818 543 243 191 97 76 83 123 156 170 191 220 13 177 152 156 156 190 246 292 303 332 296 299 305 308 366 460 339 308 157 156 156 156 237 312 323 438 395 426 294 315 309 612 511 518 440 581 479 485 376 313 319 365 304 304 311 0 140 172 170 184 233 191 176 153 175 162 153 152 137 129 151 141 115 107 137 138 120 106 34 48 148 303 305 303 205 169 150 248 320 383 387 343 291 265 324 255 65 41 150 184 153 152 0 154 226 152 1 0 0 0 0 0 0 0 0 0 0 0 0 0 0 0 0 0 0 7 34 64 30 30 32 45 68 158 146 306 315 393 586 931 1712 1480 622 21 748 469 943 565 0 0 0 0 0 0 0 0 0 0 0 0 0 0 0 0 0 0 309 342 342 304 452 287 611 1192 1518 1619 1769 2030 2100 2120 2204 2285 2279 2304 2333 2354 2348 2319 2170 1971 1980 2231 2189 2107 1877 1849 1909 1584 1955 1684 1277 1274 415 0 0 0 0 0 0 0 0 0 0 0 0 0 0 0 0 0 0 0 0 0 0 0 0 0 0 0 0 0 0 0 0 0 0 0 0 0 0 0 0 0 0 0 0 0 0 0 0 0 0 0 0 0 0 0 0 0 0 0 0 0 0 0 0 0 0 0 0 0 0 0 0 0 0 0 0 0 0 0 0 0 0 0 0 0 0 0 0 0 0 0 0 0 0 0 180 604 860 1168 814 1082 1000 900 445 461 595 451 382 385 330 353 228 139 141 182 163 102 144 107 167 245 201 225 189 250 275 308 321 180 259 135 35 46 0 24 39 29 78 110 108 214 154 181 152 178 215 189 267 227 171 0 0 0 0 0 0 0 29 25 18 13 15 15 10 74 175 99 156 159 149 140 46 26 31 38 58 161 123 149 117 109 96 98 104 132 127 83 75 156 94 58 92 141 194 109 146 281 512 382 119 155 49 15 26 1 19 20 1 21 26 12 0 0 0 0 14 53 59 67 36 40 24 30 11 13 42 53 36 7 8 11 12 33 45 61 62 35 46 52 66 47 11 95 74 87 142 202 265 344 224 194 413 523 484 749 643 274 724 680 941 361 541 457 807 443 579 836 680 399 339 708 572 512 555 595 423 456 429 489 591 694 348 415 487 500 770 394 325 396 417 449 476 383 403 489 350 380 399 361 368 367 299 338 328 319 268 258 279 228 254 210 162 180 85 99 56 97 189 188 607 331 544 1559 585 1303 1096 809 674 852 678 724 446 208 529 409 262 295 473 921 580 784 846 414 453 789 1154 1532 1191 1693 549 329 535 656 261 609 892 1257 811 807 468 231 136 103 91 58 99 89 73 68 65 53 63 52 91 215 141 143 280 105 93 151 270 203 131 158 383 211 385 338 167 312 178 147 101 126 158 164 284 525 503 728 716 721 1035 1018 757 642 546 601 558 550 524 638 510 348 125 192 122 637 756 248 175 448 495 435 439 375 281
375 0 1 121 162 294 286 265 222 339 336 10 31 73 140 265 289 231 19 0 0 0 0 0 0 0 0 0 0 30 11 10 0 0 0 0 0 0 30 93 268 48 280 303 294 806 513 211 205 120 120 245 230 227 353 178 320 210 454 456 288 99 95 102 100 105 111 135 135 137 150 166 258 193 274 372 243 353 780 963 597 612 602 553 773 823 609 600 922 538 418 352 276 152 178 169 162 131 87 70 78 105 28 152 282 154 170 396 297 309 156 156 156 156 156 156 156 156 156 156 156 156 156 156 156 302 328 407 488 384 309 311 336 337 393 607 524 418 433 469 467 317 313 330 312 29 308 304 303 248 259 255 227 201 177 176 162 159 160 212 178 152 152 152 136 127 142 130 151 160 306 305 299 319 353 292 305 302 347 336 400 409 305 307 237 155 144 0 0 0 27 0 0 9 0 0 0 0 0 0 0 0 0 0 0 0 0 0 0 0 0 1 1 23 61 72 83 31 30 30 30 30 229 144 0 0 0 206 299 646 491 711 688 1480 569 0 0 0 0 0 0 0 0 0 0 0 0 0 0 0 0 0 0 0 0 1994 1620 915 1216 914 910 956 1332 1504 1786 1938 2019 2118 2188 2342 2425 2422 2401 2325 2224 2085 1979 1691 1624 1562 1512 1362 1042 850 458 570 1360 797 80 585 0 0 0 0 0 0 0 0 0 0 0 0 0 0 0 0 0 0 0 0 0 0 0 0 0 0 0 0 0 0 0 0 0 0 0 0 0 116 0 0 0 0 0 0 0 0 0 0 0 0 0 0 0 0 0 0 0 0 0 0 0 0 0 0 0 0 0 0 0 0 0 0 0 0 0 0 0 0 0 0 0 0 0 0 0 0 0 0 0 0 0 0 0 0 0 320 640 0 340 800 760 882 832 542 448 502 523 430 577 546 252 89 119 137 194 108 84 103 146 91 58 133 206 184 176 321 243 262 263 128 296 146 117 114 141 72 43 15 0 0 0 0 0 0 108 151 144 143 147 36 0 0 0 15 19 31 14 0 42 72 74 29 54 42 40 92 78 115 125 144 169 155 97 139 56 33 92 162 154 143 84 46 41 62 70 150 62 38 109 103 60 98 108 63 81 169 548 136 56 64 66 7 6 35 29 5 76 49 32 54 36 31 44 10 6 32 46 56 45 41 61 86 72 75 45 24 9 46 56 51 54 30 24 19 14 36 31 22 33 35 103 66 30 69 52 58 147 214 520 486 534 219 236 429 360 569 783 502 582 636 386 808 594 580 474 692 551 863 656 636 762 824 350 513 500 507 434 441 473 605 577 593 484 562 560 720 510 715 539 750 358 290 417 474 496 421 396 403 344 321 420 329 352 334 310 282 254 256 262 209 219 231 228 175 144 158 91 21 45 74 185 292 357 968 817 672 936 1056 1036 882 1053 918 498 424 547 544 336 836 779 966 960 477 669 672 638 1041 1307 1010 786 2076 1327 1305 1249 940 727 358 244 293 560 818 1520 1407 1757 1002 639 393 254 194 119 76 55 45 49 35 222 330 223 259 305 750 332 374 285 419 274 240 258 629 160 365 334 648 702 495 609 439 326 388 445 629 598 470 651 1017 975 934 565 911 486 340 274 356 775 418 167 230 346 104 154 318 560 98 313 336 178 364 176 398 288 240
25 0 0 60 134 78 173 399 247 198 88 219 61 39 25 200 267 0 587 0 0 0 0 0 0 67 232 245 208 490 308 325 258 545 193 171 24 245 87 120 195 286 316 226 245 92 75 49 74 65 89 264 440 490 431 453 865 854 901 418 270 238 365 327 607 424 708 707 661 512 620 328 365 321 389 342 555 482 680 955 609 938 1035 612 536 551 688 467 585 312 636 661 465 311 738 771 477 408 512 248 152 116 34 137 243 304 301 353 309 364 288 307 204 285 429 156 156 156 156 156 209 297 156 156 156 304 364 377 504 530 494 315 342 518 530 500 553 469 439 532 543 487 379 413 357 299 311 299 294 276 304 277 241 211 194 154 166 194 152 160 156 152 131 152 152 152 150 88 153 209 302 287 298 311 304 303 322 310 198 200 295 0 210 186 160 102 24 0 6 47 243 0 1 0 0 0 0 0 0 0 0 0 0 0 0 0 0 0 0 0 0 0 0 23 75 219 73 160 193 182 243 244 305 195 0 0 0 0 0 575 28 811 139 544 183 0 0 0 0 0 0 0 0 0 0 0 0 0 0 0 0 0 0 0 316 899 580 603 247 1038 1110 1165 1377 1579 1972 2121 2180 2325 2441 2620 2742 2597 2448 2420 2324 1969 1640 1327 1185 1059 842 587 396 0 312 1 0 0 0 0 0 0 0 0 0 0 0 0 0 0 0 0 0 0 0 0 0 0 0 0 0 0 0 278 511 451 298 0 0 45 327 301 632 0 222 364 559 383 679 450 377 0 0 0 0 0 0 0 0 0 0 0 0 0 0 0 0 0 0 0 0 0 0 0 0 0 0 0 0 0 0 0 0 0 0 0 0 0 0 0 0 0 0 0 0 0 0 0 0 0 0 0 0 0 0 640 600 700 640 492 443 857 612 600 515 461 404 412 474 307 297 208 159 9 13 0 0 23 0 36 81 111 143 134 138 234 289 248 258 272 291 223 136 111 138 97 74 82 60 16 0 0 0 0 0 0 0 0 0 0 58 61 52 42 72 131 36 38 10 28 18 67 59 48 61 68 91 94 69 98 89 119 99 131 25 157 139 89 146 59 129 72 64 58 54 95 68 160 55 122 193 369 286 564 861 265 185 91 18 3 1 14 13 17 23 10 47 26 51 38 53 41 14 7 23 14 52 59 33 59 89 94 97 29 38 18 14 28 36 38 28 40 50 34 31 22 71 77 86 66 34 19 24 38 26 27 139 96 213 292 281 368 394 265 376 224 448 678 734 480 541 687 746 627 867 526 462 566 549 402 666 482 599 604 653 666 496 706 384 435 392 417 469 450 579 457 423 721 714 475 565 558 645 367 420 608 402 401 432 330 240 374 356 322 317 268 273 223 217 193 193 219 184 173 214 143 104 75 24 98 237 342 373 529 756 988 753 1107 1237 1232 1149 860 795 430 487 743 793 896 605 764 1045 623 677 771 896 877 1191 973 1363 1292 1327 1013 1694 718 784 614 571 809 518 466 736 817 573 871 1051 875 942 454 302 96 86 50 57 157 415 506 568 449 465 453 515 174 244 241 321 249 260 277 341 421 663 945 544 422 915 901 848 892 980 848 1050 1048 918 854 671 308 523 335 304 391 380 277 109 72 140 64 16 134 246 428 368 33 187 213 36 189 38 64 154 114
52 0 0 0 0 0 0 0 25 494 229 520 211 362 54 59 0 0 0 0 0 0 0 0 0 0 0 259 28 1 32 304 245 284 245 163 21 36 113 220 310 490 278 490 86 75 60 120 185 371 507 716 876 122 55 110 65 532 245 422 610 105 102 490 352 389 694 490 639 610 1274 822 1160 922 365 439 259 432 1216 978 924 902 916 938 852 878 872 1284 1283 554 1214 632 1412 669 1701 1556 1245 598 1324 1013 1422 867 642 409 242 157 39 577 326 83 245 316 159 156 156 156 156 343 204 156 230 279 180 301 300 275 345 347 377 445 534 507 429 432 443 427 480 510 492 493 442 461 470 421 322 318 306 276 280 304 248 217 203 187 207 210 191 196 162 182 176 134 220 158 155 149 153 120 149 152 163 162 168 217 243 310 296 277 230 345 305 307 331 98 22 15 0 1 35 42 9 206 0 0 0 0 0 0 0 0 0 0 0 0 0 0 39 30 1 2 1 26 63 98 63 154 112 112 161 300 359 370 375 425 367 0 0 0 0 0 0 237 248 0 0 0 0 0 0 0 0 0 0 0 0 0 0 0 0 0 0 0 0 0 0 0 580 424 301 731 915 1173 1352 1494 1692 2074 2285 2479 2544 2591 2591 2556 2438 2233 1973 1639 1410 1107 731 571 0 0 0 0 0 0 0 0 0 0 0 0 0 0 0 0 0 0 0 0 0 0 0 0 0 0 0 0 0 0 0 0 0 0 0 516 292 211 86 479 456 635 591 1003 793 555 565 494 691 547 172 791 0 0 0 0 0 0 0 0 0 0 0 0 0 0 0 0 0 0 0 0 0 0 0 0 0 0 0 0 0 0 0 0 0 0 0 0 0 0 0 0 0 0 0 0 0 0 0 0 0 0 0 0 0 680 360 860 1081 728 794 673 528 345 426 325 343 287 303 335 329 182 42 0 0 0 0 0 0 0 15 65 94 115 119 193 220 282 218 233 131 197 115 134 133 104 104 66 67 0 0 0 0 10 0 0 0 0 0 0 68 112 142 97 128 124 32 38 43 57 16 77 88 101 125 137 178 187 176 248 253 132 112 130 102 83 91 92 92 131 112 81 99 62 100 183 141 192 279 692 1099 708 1000 385 53 126 134 91 104 7 41 35 40 10 25 98 68 68 46 47 71 83 79 51 7 33 14 46 69 70 68 81 56 35 27 17 31 33 55 51 46 49 29 6 31 38 111 133 124 100 93 56 32 31 41 31 146 214 542 476 303 519 443 584 373 301 537 204 322 586 520 283 403 531 750 402 352 574 602 652 486 454 332 373 483 510 527 600 581 654 429 442 511 498 467 456 364 477 351 478 640 592 349 531 523 485 415 421 393 345 315 212 311 255 254 223 176 170 213 192 165 185 215 231 210 152 129 127 45 47 91 98 118 631 513 668 1143 1196 1296 1451 1280 1062 664 937 795 830 829 1103 901 977 925 727 779 950 1148 1211 1210 1188 1205 1003 1503 1045 1864 1633 1754 1424 523 1338 1183 934 1833 2414 2101 600 629 1412 1081 678 646 152 120 79 66 71 285 455 565 445 402 636 134 198 411 355 345 345 514 442 280 812 459 356 400 777 778 963 839 749 709 597 1480 557 535 446 821 201 387 264 446 313 349 35 19 22 95 293 9 1 181 46 28 28 61 2 3 79 120 245 40 4
0 0 0 0 0 0 0 0 0 0 0 79 209 326 0 0 0 0 0 0 0 0 0 0 0 0 0 46 63 133 203 83 72 11 202 0 0 0 0 232 590 560 239 35 60 44 40 42 68 150 90 120 150 215 245 200 168 200 200 117 88 121 185 121 140 164 425 550 305 510 643 1538 1095 1520 1037 855 1053 975 530 1338 1545 1657 1171 1667 1461 1333 1578 1589 1596 1737 1422 1511 873 1306 1644 1882 1764 908 1650 1764 1837 1154 1188 1691 1117 846 442 563 307 245 78 311 307 231 176 158 159 181 306 375 510 534 338 190 283 297 259 311 316 337 381 471 505 472 470 433 444 450 468 471 456 413 428 348 354 363 344 305 302 306 304 284 310 197 153 158 153 176 124 81 75 117 130 103 85 77 165 99 148 152 89 87 117 135 151 155 155 152 156 115 155 209 173 130 48 0 0 40 46 59 105 312 293 318 340 126 0 0 0 0 0 0 0 58 155 240 194 70 27 3 1 0 18 202 264 152 112 112 147 165 247 335 474 589 632 603 487 344 6 148 0 0 0 0 0 0 0 0 0 0 0 0 0 0 0 0 0 0 0 0 0 0 0 0 0 0 304 0 0 0 174 1025 1366 1551 1872 2046 2281 2535 2575 2591 2605 2634 2648 2393 2063 1920 1777 1212 852 0 0 0 0 0 0 0 0 0 0 0 0 0 0 0 0 0 0 0 0 0 0 0 0 0 0 0 0 0 0 0 0 0 0 0 0 40 67 33 474 1299 532 768 659 987 933 1591 1382 1050 977 753 644 0 0 0 0 0 0 0 0 0 0 0 0 0 0 0 0 0 0 0 0 0 0 0 0 0 0 0 0 0 0 0 0 0 0 0 0 0 0 0 0 0 0 0 0 0 0 0 0 0 0 0 20 300 260 340 660 483 416 833 532 349 402 387 481 389 377 272 329 263 239 71 0 0 0 0 0 0 0 62 52 70 77 116 162 217 245 175 225 238 260 206 188 150 109 160 107 101 94 22 0 0 0 56 122 21 0 72 0 0 0 16 46 119 131 102 165 47 66 88 69 53 78 117 171 87 186 166 143 255 351 224 225 259 186 185 72 75 104 124 97 158 86 167 137 62 110 230 463 1177 397 194 94 47 71 136 75 39 50 50 12 25 33 37 58 31 149 68 83 100 76 76 81 81 59 73 65 48 70 66 80 70 52 21 11 44 27 40 50 40 43 43 12 41 43 62 95 112 126 96 157 112 52 43 36 38 171 230 318 513 469 372 535 433 342 186 230 273 301 444 549 386 403 376 549 347 390 508 508 275 218 457 516 437 514 527 479 600 535 475 515 523 449 436 389 441 546 448 372 436 380 593 562 524 429 236 397 364 275 176 338 311 258 193 231 237 227 199 166 217 153 157 165 191 203 197 196 171 160 90 63 47 289 511 571 950 1324 1298 1351 1159 829 656 1392 1290 904 1064 1104 1123 1090 1064 1183 852 1113 1173 1026 1157 1192 1111 969 1043 865 807 706 783 907 1215 905 841 1013 1134 1666 1336 1606 1087 1139 711 603 712 446 232 769 162 126 144 236 469 89 405 538 509 311 272 246 397 326 667 631 879 453 669 469 369 398 657 1092 907 997 655 657 751 693 848 599 559 826 547 427 275 130 36 29 10 5 111 340 290 57 46 29 9 55 157 6 0 36 0 0 0 0 0
0 0 0 0 0 0 0 0 0 0 0 0 0 0 0 0 0 0 0 0 0 0 0 0 0 0 0 0 0 0 0 0 0 0 0 0 0 0 70 195 245 246 28 96 610 157 97 120 227 189 418 111 365 441 417 286 314 198 138 234 273 429 610 498 674 480 430 345 316 319 594 1035 1107 1132 1445 568 767 889 1039 874 913 613 880 913 923 1130 1515 1051 909 951 1142 1209 1538 725 1212 1491 1334 1225 1508 1349 1201 2094 852 979 2094 1522 543 693 462 519 351 292 591 310 436 356 284 230 305 423 401 342 386 366 313 204 242 305 328 316 330 415 416 411 444 532 421 408 411 393 377 380 366 366 391 366 346 331 335 321 312 299 145 166 125 164 160 250 173 158 149 119 150 151 120 136 132 2 2 2 2 45 61 18 69 67 81 149 32 1 0 11 48 0 0 0 0 5 45 52 127 93 62 1 33 92 18 0 0 0 0 0 0 0 0 0 0 0 0 0 0 0 0 0 169 152 304 329 305 351 236 134 279 505 601 671 661 698 899 397 0 0 0 0 0 0 0 0 0 0 0 0 0 0 0 0 0 0 0 0 0 0 0 0 0 0 1 799 947 407 607 913 1415 1847 2012 2157 2351 2492 2541 2604 2690 2753 2627 2530 2142 1923 1676 422 488 0 0 0 0 0 0 0 0 0 0 0 0 0 0 0 0 0 0 0 0 0 0 0 0 0 0 0 0 0 0 0 0 0 0 0 0 0 21 318 178 120 250 507 585 638 842 651 1329 422 0 0 0 0 0 0 0 0 0 0 0 0 0 0 0 0 0 0 0 0 0 0 0 0 0 0 0 0 0 0 0 0 0 0 0 0 0 0 0 0 0 0 0 0 0 0 0 0 0 0 0 0 90 387 240 26 635 465 794 372 443 705 404 336 308 447 328 438 311 392 203 240 167 56 0 0 0 0 0 27 62 83 99 110 121 147 141 212 215 181 153 162 225 222 222 149 143 140 109 99 93 171 69 32 0 0 0 0 120 163 181 69 71 69 36 31 24 72 149 87 65 86 164 112 120 90 159 174 124 109 180 199 208 174 217 146 242 178 94 163 151 142 145 120 132 136 102 140 192 198 343 899 215 95 17 34 126 109 155 68 179 53 12 26 16 44 185 89 84 93 89 109 111 108 94 102 87 82 69 91 88 77 77 58 58 50 69 42 33 36 35 43 22 22 54 61 64 115 131 100 76 56 82 141 87 49 44 41 210 200 329 449 385 285 390 418 519 512 166 241 153 406 346 247 541 328 321 367 258 128 188 290 584 496 216 430 414 296 324 460 499 333 248 539 613 312 417 353 464 372 411 384 410 404 423 397 424 432 397 380 339 327 283 270 175 187 196 198 148 197 201 208 203 189 155 179 183 181 162 176 136 114 142 81 63 132 66 331 489 316 664 407 800 1078 819 791 1122 1188 1259 1186 672 1153 613 871 464 568 966 1060 815 1207 1147 1397 1196 1040 1148 586 924 949 645 1111 1390 903 943 1569 1315 1119 1544 1785 1169 933 394 851 767 783 265 262 294 651 455 505 364 197 170 643 383 784 666 1242 812 896 746 1136 614 451 597 963 648 624 978 569 692 262 446 621 405 564 290 323 310 410 123 95 63 183 57 81 127 306 141 298 65 408 315 17 11 23 20 40 2 0 0 0
0 0 0 0 0 0 0 0 0 0 0 0 0 0 0 0 0 0 0 0 0 0 0 0 0 0 0 0 0 0 0 0 0 0 0 0 0 0 0 38 237 26 114 118 45 110 171 117 346 370 320 166 397 425 244 195 212 182 261 454 548 690 537 1392 1036 1030 1029 609 499 412 426 644 560 730 730 730 850 1095 1152 927 422 914 924 610 741 914 1524 611 748 1242 814 790 792 818 827 991 1813 1236 1398 1544 1118 1483 1262 1533 1452 1540 1081 678 640 587 275 231 374 238 479 304 250 246 310 332 407 415 365 306 310 213 242 297 268 308 308 333 374 377 438 457 496 554 423 515 465 373 417 381 391 366 363 407 347 366 315 164 304 271 171 196 275 279 166 152 150 154 157 152 125 201 79 92 18 21 21 2 6 1 0 6 8 15 7 1 0 0 0 0 0 0 4 6 13 36 118 21 5 0 0 10 2 26 152 0 0 0 0 0 0 0 0 0 0 0 0 0 0 0 0 0 154 304 316 446 510 420 151 308 467 625 634 842 833 327 1 0 0 0 0 0 0 0 0 0 0 0 0 0 0 0 0 0 0 0 0 0 0 0 0 0 0 0 911 911 942 1411 1526 1821 2044 2201 2347 2470 2552 2642 2728 2786 2691 2502 2157 1415 1674 101 5 0 0 0 0 0 0 0 0 0 0 0 0 0 0 0 0 0 0 0 0 0 0 0 0 0 0 0 0 0 0 0 0 0 0 0 30 140 20 0 12 70 500 571 513 256 269 25 21 0 0 0 0 0 0 0 0 0 0 0 0 0 0 0 0 0 0 0 0 0 0 0 0 0 0 0 0 0 0 0 0 0 0 0 0 0 0 0 0 0 0 0 0 0 0 0 0 0 0 0 0 3 395 400 20 300 520 630 783 621 578 430 420 279 248 228 330 343 471 231 130 170 81 0 0 0 0 0 11 70 110 109 120 149 139 145 183 185 310 220 185 179 261 178 211 272 154 164 102 99 83 123 106 97 33 21 0 28 39 45 79 73 51 53 51 44 60 91 84 45 51 59 142 158 182 159 104 169 161 203 157 199 189 217 162 144 275 185 130 134 127 154 189 196 131 84 109 182 204 273 612 475 92 133 23 62 116 121 97 35 35 30 6 6 24 42 62 34 35 62 87 100 80 107 105 83 71 66 90 111 118 107 67 62 56 64 52 46 60 51 48 60 55 63 65 58 43 56 50 43 111 88 74 94 66 31 39 52 215 175 273 438 311 288 355 430 350 303 317 188 392 309 369 263 100 178 482 130 670 682 665 561 442 416 410 501 523 462 277 378 406 382 303 598 286 235 424 398 460 476 362 320 458 428 509 413 458 405 500 374 438 336 245 306 230 187 192 133 199 186 172 134 170 183 143 83 95 115 100 93 103 96 79 73 49 38 74 32 159 333 200 300 268 289 328 338 500 660 775 474 874 1369 1056 733 891 794 929 989 1006 1322 1118 1549 1066 1179 1353 1015 702 1400 862 1106 1446 1157 971 916 1211 1460 1574 1161 1225 818 1043 892 491 277 441 277 202 603 176 156 259 741 543 368 510 1260 554 849 867 924 1107 779 493 1004 687 686 617 740 563 582 515 655 290 566 416 389 254 119 64 272 191 91 76 93 151 178 199 395 482 188 185 298 46 46 21 35 1 19 50 22 0 0
0 0 0 0 0 0 0 0 0 0 0 0 0 0 0 0 0 0 0 11 25 21 0 0 0 0 0 0 0 0 0 0 0 0 0 57 272 255 365 351 245 115 56 29 38 157 377 340 408 166 479 213 199 193 275 375 506 670 914 1888 914 833 1052 741 822 985 1636 1129 1362 2329 1431 1367 1095 500 548 678 975 662 885 914 648 920 604 905 913 986 667 1143 722 892 1260 817 849 672 882 1205 897 881 1088 1841 1532 1557 1452 1849 1480 1611 1845 951 1207 948 669 547 183 920 472 304 303 287 321 330 304 276 265 265 265 289 221 156 179 228 278 305 307 327 375 422 456 547 402 432 462 407 358 379 359 363 364 364 359 315 251 305 310 311 248 230 284 235 235 307 305 250 198 157 153 82 152 148 152 92 111 135 121 57 28 14 82 90 0 0 0 0 0 0 0 0 0 0 0 63 8 0 0 0 0 0 0 0 0 0 0 0 0 100 171 0 0 0 0 0 0 0 0 0 0 0 44 225 276 321 340 525 731 0 0 139 0 609 590 611 0 0 0 0 0 0 0 0 0 0 0 0 0 0 0 0 0 0 0 0 0 0 0 0 0 0 0 0 145 876 610 1295 1752 1994 2131 2288 2490 2564 2590 2664 2722 2661 2430 2036 1779 690 184 1 0 0 0 0 0 0 0 0 0 0 0 0 0 0 0 0 0 0 0 0 0 0 0 0 0 0 0 0 0 0 0 0 0 0 0 0 0 0 0 0 0 0 0 0 0 0 0 0 0 0 0 0 0 0 0 0 0 0 0 0 0 0 0 0 0 0 0 0 0 0 0 0 0 0 0 0 0 0 0 0 0 0 0 0 0 0 0 0 0 0 0 0 0 0 0 0 0 0 0 220 500 0 0 300 460 498 610 650 488 346 296 280 394 260 349 224 228 224 107 29 0 0 0 0 2 0 0 44 69 96 165 169 184 178 126 96 74 147 151 190 91 99 117 150 240 258 188 135 148 110 146 98 122 119 189 195 245 172 120 62 41 143 146 66 33 12 35 132 97 146 116 182 184 188 161 131 201 134 165 161 135 177 160 173 159 153 172 158 190 131 121 113 127 120 98 95 171 387 293 292 377 230 50 96 21 143 63 37 33 65 39 33 6 120 54 86 67 95 82 111 102 125 130 112 118 117 112 116 120 107 162 103 85 108 106 82 79 53 72 75 105 99 129 169 154 97 105 96 110 79 120 192 110 100 106 30 30 54 176 197 206 243 223 458 346 369 355 377 455 443 369 344 416 439 261 245 413 285 728 157 469 460 484 586 739 432 329 305 352 428 388 323 209 266 288 268 309 277 430 295 298 301 435 391 309 369 403 356 312 341 309 321 306 210 189 184 205 188 95 115 211 207 123 161 175 171 202 180 166 185 188 209 171 201 186 175 123 95 137 84 90 89 82 58 58 82 113 82 86 200 223 263 236 290 380 825 748 1303 1068 1107 1618 1645 1494 1165 878 791 852 900 743 790 1290 1976 1063 1339 1276 903 954 966 1591 797 791 769 685 677 1015 1071 893 175 871 498 290 419 976 334 705 683 1141 1272 869 1087 1124 839 994 1057 473 580 917 786 332 668 951 264 542 322 538 312 173 53 48 241 174 271 395 774 330 519 363 208 200 238 248 251 481 255 328 195 452 31 130 250 0 0
0 0 0 0 0 0 0 0 0 0 0 0 0 0 0 0 0 0 0 0 0 0 0 0 0 0 0 0 0 0 0 1 5 28 182 269 274 485 52 152 20 298 60 121 121 302 739 319 97 147 134 184 219 388 927 1190 1338 2133 792 273 630 732 731 729 1228 731 954 1036 853 883 856 1225 718 1006 792 740 528 615 575 1067 924 905 913 577 570 580 819 531 544 619 1218 773 926 1222 1776 735 943 993 1129 1187 1559 1203 1345 1469 1806 1533 987 1977 1491 1414 994 636 383 77 410 508 243 176 190 165 192 201 255 268 304 304 254 160 157 169 244 265 305 306 322 309 431 156 156 302 281 156 271 431 342 357 355 357 377 322 272 304 348 304 312 240 242 236 290 306 295 304 147 82 82 152 131 114 156 128 72 155 80 55 17 0 0 0 0 0 0 0 0 0 0 0 0 0 0 0 0 0 0 10 5 34 0 0 0 0 0 0 0 0 0 0 0 0 0 0 0 0 0 0 0 0 0 0 80 62 97 171 509 615 603 459 0 0 0 201 0 0 0 0 0 0 0 0 0 0 0 0 0 0 0 0 0 0 0 0 0 0 0 0 0 0 0 0 0 66 199 1002 1678 2050 2020 2192 2420 2441 2454 2534 2442 2150 1769 1167 750 253 0 0 0 0 0 0 0 0 0 0 0 0 0 0 0 0 0 0 0 0 0 0 0 0 0 0 0 0 0 0 0 0 0 0 0 0 0 0 0 0 0 0 0 0 0 0 0 0 0 0 0 0 0 0 0 0 0 0 0 0 0 0 0 0 0 0 0 0 0 0 0 0 0 0 0 0 0 0 0 0 0 0 0 0 0 0 0 0 0 0 0 0 0 0 0 0 0 0 310 20 0 435 1360 760 720 860 840 992 1114 670 561 546 537 331 296 260 226 240 260 12 18 0 0 0 0 0 26 62 86 45 112 153 204 158 174 84 119 120 129 91 126 113 78 143 124 132 202 175 203 227 157 159 127 23 127 125 123 165 210 198 184 163 144 80 111 128 61 76 77 15 32 91 176 176 188 159 145 151 210 147 202 185 183 171 166 107 127 165 138 162 314 208 192 216 222 221 110 142 131 200 378 187 371 277 74 144 38 36 72 53 102 59 33 36 7 172 88 179 99 132 94 105 99 84 101 98 86 88 85 82 92 105 90 92 114 91 93 101 113 77 77 93 106 116 152 191 178 170 157 183 170 183 160 147 246 155 116 73 47 53 51 92 187 307 179 315 386 476 385 580 673 389 443 337 489 443 504 507 485 346 385 404 420 466 345 283 342 332 346 491 344 355 339 398 368 272 390 292 312 349 322 339 331 353 320 312 263 313 277 381 206 315 316 294 268 278 244 193 155 137 205 275 259 252 252 259 268 282 267 293 291 310 272 253 283 181 268 244 154 198 190 200 203 118 136 130 171 165 174 197 196 207 207 115 145 173 232 287 449 891 725 1263 1697 1819 1420 1875 1294 1159 1057 1063 921 1009 1025 1153 1728 952 1022 641 1221 816 748 821 850 728 602 314 462 281 197 492 310 374 360 628 760 784 445 767 1324 1395 1063 792 641 403 599 706 347 309 251 323 251 137 105 320 158 447 335 39 79 93 167 273 389 622 591 516 581 445 670 497 359 315 293 279 201 288 125 159 9 92 469 137 222 0
0 0 0 0 0 0 0 0 0 0 0 0 0 0 0 0 0 0 0 0 0 0 0 0 0 0 0 0 0 3 1 55 27 105 202 17 30 190 110 60 16 202 243 85 243 300 245 243 365 259 608 1158 1033 609 1311 1368 67 365 244 92 426 981 1706 1816 1432 1087 731 661 655 487 842 2329 1062 1524 2336 1828 838 1068 860 711 609 815 912 1476 1269 973 924 623 967 958 1470 1764 1057 1159 1020 1137 862 976 1240 1234 1216 1519 1348 934 1368 2139 1796 2104 1320 1123 793 809 241 304 219 304 202 278 434 739 638 648 530 259 194 209 206 215 161 156 156 156 204 206 210 298 305 302 304 304 322 308 340 457 377 379 377 333 335 323 315 300 306 309 305 299 266 268 275 256 256 215 150 151 153 149 152 152 70 53 50 29 12 2 1 0 0 0 0 0 0 0 0 0 0 0 0 0 0 0 0 0 0 6 0 0 0 0 0 0 92 0 0 4 109 318 380 319 165 296 0 152 248 365 0 0 0 0 0 0 0 0 0 122 180 230 538 1 0 0 0 0 0 0 0 0 0 0 0 0 0 0 0 0 0 0 0 0 0 0 0 0 0 0 0 0 0 0 0 0 0 1 991 1315 1499 1815 2127 2328 2362 2393 2320 2108 1980 1782 703 0 0 0 0 0 0 0 0 0 0 0 0 0 0 0 0 0 0 0 0 0 0 0 0 0 0 0 0 0 0 0 0 0 0 0 0 0 0 0 0 0 0 0 0 0 0 0 0 0 0 0 0 0 0 0 0 0 0 0 0 0 0 0 0 0 0 0 0 0 0 276 0 0 0 0 0 0 0 0 0 0 0 0 0 0 0 0 0 0 0 0 0 0 0 0 0 340 610 780 1 1170 1047 1280 1287 1480 1020 487 1077 678 788 840 679 600 450 538 294 374 424 157 12 0 0 0 0 0 0 0 0 128 163 160 146 102 169 160 175 158 99 178 110 116 96 62 61 86 120 110 175 194 157 143 168 156 79 23 21 23 133 118 162 120 122 205 157 75 80 110 204 155 98 54 47 46 46 49 135 182 148 164 196 179 191 107 153 139 88 129 175 156 126 107 164 182 159 147 184 160 192 133 164 251 306 460 305 318 149 44 47 55 66 127 120 123 41 165 68 54 10 24 137 77 70 70 83 69 71 71 77 66 62 60 66 71 72 80 62 60 72 77 72 84 78 81 95 93 95 95 109 94 118 115 135 123 160 121 75 72 47 97 191 188 205 125 105 257 290 247 256 241 257 472 513 278 335 519 635 618 647 484 534 394 407 435 423 391 435 323 298 334 363 279 363 437 439 450 315 343 413 422 407 316 254 305 279 367 350 330 292 328 396 385 338 323 338 334 308 260 198 204 194 158 286 287 292 295 332 322 378 372 357 279 278 232 223 251 273 318 284 245 322 272 222 255 241 74 138 142 177 216 229 210 187 240 156 136 255 134 290 357 737 453 445 1079 1809 1741 1223 1233 2157 1565 1152 1377 1679 1343 1216 1372 1166 905 1068 1252 820 519 723 730 1371 872 682 370 706 581 434 523 628 389 864 972 891 674 634 692 1042 1207 682 540 415 248 316 62 220 335 446 443 0 0 203 51 6 243 634 80 62 218 297 526 1013 1143 1431 1003 923 893 233 352 499 312 286 190 41 78 0 0 0 0 0 0 0 0
0 0 0 0 0 0 0 0 0 0 0 0 0 0 0 0 0 0 0 0 0 0 0 0 0 0 0 0 2 2 7 4 3 14 15 7 62 5 21 29 30 245 231 118 296 511 71 121 217 432 495 1510 1762 887 542 1525 560 599 26 56 182 731 167 1492 1181 1684 1050 1233 544 728 297 539 1200 2752 1503 2158 1828 975 1056 1277 1160 1491 1218 1521 1218 1219 1219 990 913 914 992 1552 1402 1937 1764 1525 822 907 1118 1589 1216 1403 1191 1265 909 1662 1854 979 1154 1463 1404 728 424 459 341 600 184 162 174 189 219 265 237 176 145 183 186 219 174 156 156 156 156 156 258 156 270 300 332 358 353 353 360 607 375 371 408 439 382 383 361 431 408 311 323 309 317 306 305 312 308 294 252 203 227 165 188 78 104 48 36 14 1 0 0 0 0 0 0 0 0 0 0 0 0 0 0 0 0 0 0 0 0 0 0 0 0 0 0 0 1 0 0 0 1 36 141 252 308 285 338 320 402 608 462 285 0 0 0 0 0 0 0 0 0 0 0 0 0 0 0 0 0 0 0 0 0 0 0 0 0 0 0 0 0 0 0 0 0 0 0 0 0 0 0 0 0 0 0 0 0 0 969 914 1526 1374 1579 1932 1992 1667 2550 2261 2340 980 0 0 0 0 0 0 0 0 0 0 0 0 0 0 0 0 0 0 0 0 0 0 0 0 0 0 0 0 0 0 0 0 0 0 0 0 0 0 0 0 0 0 0 0 0 0 0 0 0 0 0 0 0 0 0 0 0 0 0 0 0 0 0 0 0 0 0 0 0 0 0 0 0 0 0 0 0 0 0 0 0 0 0 0 0 0 0 0 0 0 0 0 0 0 0 0 810 155 930 1713 1595 1560 833 1113 660 800 1093 667 293 680 775 622 556 645 509 474 319 289 155 189 13 0 0 0 0 0 0 0 0 21 70 124 74 118 146 107 117 122 119 94 123 68 131 88 64 80 93 1 52 75 91 124 75 165 191 23 23 23 57 134 169 162 149 139 115 148 258 107 155 160 102 77 176 151 159 164 49 73 62 100 200 178 68 130 141 105 151 154 110 109 163 206 155 158 155 164 125 176 171 180 172 238 253 407 593 298 231 106 65 110 89 145 154 91 131 118 127 141 122 48 19 62 137 40 61 53 77 72 84 60 57 74 68 69 47 49 53 55 50 67 72 94 90 83 59 63 80 81 80 95 90 93 97 130 125 151 157 143 85 195 192 191 180 160 159 141 182 33 318 225 312 222 334 477 594 331 480 374 757 481 370 357 326 432 455 317 337 407 410 348 364 384 440 440 456 345 363 414 396 366 377 310 314 304 348 306 361 409 395 391 381 307 320 368 329 360 311 361 285 290 216 162 242 224 255 274 193 288 289 345 350 373 375 362 333 320 176 241 294 269 280 316 286 229 193 150 159 221 212 234 226 255 136 221 248 338 129 255 282 607 1163 1166 1151 1167 1093 1146 1376 1075 1548 1388 1265 1636 1814 1112 1747 1446 1194 1033 921 909 1056 1054 1387 765 838 543 1839 745 761 1183 577 415 1010 486 458 1236 834 993 353 187 232 0 0 0 0 64 0 475 498 341 128 41 47 0 144 499 123 50 53 79 210 420 481 689 1016 816 1085 826 1289 1185 656 647 160 50 0 0 0 0 0 0 0 0 0 0 0 0
0 0 0 0 0 0 0 0 0 0 0 0 0 0 0 0 0 0 0 0 0 0 0 0 0 0 0 0 0 1 5 6 1 17 12 12 5 6 5 43 888 94 304 281 185 111 223 304 184 365 245 1028 339 1088 357 1016 531 79 0 0 30 1685 1372 2022 60 858 863 1339 1827 965 1443 607 1341 1071 1344 1361 1584 2265 2503 2440 1764 1410 785 1535 1764 1648 1215 1234 1221 628 869 1523 1675 1130 1433 1012 1494 1707 1540 1531 1531 938 1459 870 1833 1104 1237 1061 1224 935 721 661 249 304 179 305 304 304 280 205 168 147 163 197 170 153 156 156 156 156 156 156 156 199 244 241 265 303 330 347 357 404 433 455 463 428 434 401 397 386 369 409 331 367 340 342 432 310 309 307 288 293 233 218 193 184 198 152 138 79 34 1 0 0 0 0 0 0 0 0 0 0 0 0 0 0 0 0 0 0 0 0 0 0 0 0 0 0 0 0 0 0 0 0 0 152 152 153 206 304 311 392 450 452 469 309 330 0 0 0 0 0 0 0 0 0 0 0 0 0 0 0 0 0 0 0 0 0 0 0 0 0 0 0 0 0 0 0 0 0 0 0 0 0 0 0 0 0 0 0 0 0 0 0 683 754 869 232 0 117 1149 2115 1274 294 227 0 0 0 0 0 0 0 0 0 0 0 0 0 0 0 0 0 0 0 0 0 0 0 0 0 0 0 0 0 0 0 0 0 0 0 0 0 0 0 0 0 0 0 0 0 0 0 0 0 0 0 0 0 0 0 0 0 0 0 0 0 0 0 0 0 0 0 0 0 0 0 0 0 0 0 0 0 0 0 0 0 0 0 0 0 0 0 0 0 0 0 0 0 0 0 326 700 884 0 180 1520 1100 1220 1000 859 309 896 580 640 440 480 588 541 475 213 208 227 250 59 0 0 0 0 0 0 0 0 0 38 40 50 105 86 77 100 155 86 77 78 91 82 79 72 18 1 1 1 1 1 1 32 125 82 138 69 43 23 23 128 191 211 148 111 158 181 126 164 154 97 106 82 115 130 190 115 196 230 176 94 160 79 153 154 142 176 169 133 162 152 182 204 200 193 132 116 156 203 211 190 248 321 291 321 906 365 289 188 114 124 122 116 81 89 99 116 94 97 95 53 39 32 100 100 29 23 30 36 25 36 48 39 31 30 38 31 32 46 54 50 81 64 70 54 65 52 42 53 59 83 72 111 105 101 98 140 145 154 145 169 174 146 146 66 118 108 264 241 310 411 225 128 215 391 298 333 429 445 446 278 413 292 441 376 450 381 373 387 407 375 421 418 403 407 442 340 376 319 344 335 325 384 296 278 309 344 408 366 412 389 349 433 407 316 344 347 315 360 349 262 327 345 361 295 240 318 235 266 353 335 356 309 450 415 354 426 362 370 348 272 247 139 190 250 263 244 325 302 332 247 283 341 355 328 238 307 166 498 440 959 892 937 769 1490 1205 1224 1443 767 1343 1658 774 847 719 688 1119 1741 971 717 1148 1052 1065 796 1409 736 933 650 892 613 806 1047 1055 673 802 1199 725 970 1023 585 262 0 0 0 0 0 0 0 316 224 280 0 0 0 0 0 58 201 533 421 404 306 96 502 186 173 346 774 638 175 296 376 522 0 0 0 0 0 0 0 0 0 0 0 0 0 0 0
0 0 0 0 0 0 0 0 0 0 0 0 0 0 0 0 0 0 0 0 0 0 0 0 0 0 0 0 0 0 205 0 0 13 8 1 2 15 38 138 855 564 403 221 167 293 250 304 298 288 652 649 954 1097 1445 160 0 39 70 213 1110 998 931 315 0 0 0 113 281 577 172 870 2468 1655 1009 1519 1859 2692 2102 2332 2781 2135 2540 1525 569 771 1399 1171 1428 1231 1465 835 1497 1533 862 1241 983 1450 1369 1074 862 1344 913 831 839 915 1139 980 1108 990 953 1284 572 283 581 615 610 496 557 602 419 315 314 305 268 270 260 196 181 170 297 245 236 211 206 204 202 310 305 305 375 417 426 456 457 475 455 456 424 421 376 364 364 360 359 327 312 322 344 308 310 303 278 212 190 173 158 156 75 28 5 0 0 0 0 0 0 0 0 0 0 0 0 0 0 0 0 0 0 0 0 0 0 0 0 0 0 0 0 0 0 0 0 0 0 4 84 142 161 188 293 305 308 314 340 311 313 314 306 192 127 0 0 0 0 0 0 0 0 0 0 0 0 0 0 0 0 0 0 0 0 0 0 0 0 0 0 0 0 0 0 0 0 0 0 0 0 0 0 0 0 0 0 0 0 0 0 1 1 0 0 161 11 2 0 0 0 0 0 0 0 0 0 0 0 0 0 0 0 0 0 0 0 0 0 0 0 0 0 0 0 0 0 0 0 0 0 0 0 0 0 0 0 0 0 0 0 0 0 0 0 0 0 0 0 0 0 0 0 0 0 0 0 0 0 0 0 0 0 0 0 0 0 0 0 0 0 0 0 0 0 0 0 0 0 0 0 0 0 0 0 0 0 0 0 0 0 0 0 3 60 650 490 700 1220 1329 1040 380 867 410 480 367 233 387 220 475 493 413 325 275 218 220 268 66 0 0 0 0 0 0 0 0 1 7 60 76 89 114 111 91 63 56 52 24 34 31 24 5 50 1 84 1 1 1 1 1 4 105 86 128 238 164 214 142 155 155 152 127 125 164 161 209 241 163 187 109 81 103 157 152 137 104 124 154 141 108 179 179 162 161 194 135 143 198 182 141 189 145 200 189 139 147 194 219 209 308 310 221 451 329 178 118 125 114 64 93 78 59 70 71 66 81 75 74 69 58 44 31 42 31 63 72 37 63 41 57 55 35 42 78 78 47 80 41 12 41 62 50 94 85 86 89 116 85 90 100 96 137 123 125 145 140 126 117 102 134 143 117 104 74 213 367 549 349 373 476 243 395 312 227 305 467 411 490 277 473 341 445 391 372 396 367 362 360 338 365 375 414 447 432 362 362 383 358 342 350 358 381 378 394 429 448 458 571 349 454 381 483 433 350 352 393 199 380 310 369 331 232 353 418 380 294 126 395 315 330 236 347 245 373 482 492 468 473 483 495 478 381 341 343 337 359 326 347 307 396 404 310 330 270 178 336 450 562 804 584 1268 1280 1286 1113 855 936 681 952 980 425 711 492 1197 989 681 966 736 488 618 763 601 873 971 941 1030 638 1268 903 697 639 1224 644 593 712 687 0 0 0 0 0 0 0 0 0 62 0 0 0 0 0 16 38 120 502 549 4 144 266 700 786 266 183 25 49 250 635 111 0 0 0 0 0 0 0 0 0 0 0 0 0 0 0 0 0
0 0 0 0 0 0 0 0 0 0 0 0 0 0 0 0 0 0 0 0 0 0 0 0 0 60 125 214 74 0 0 12 7 4 3 1 8 39 609 354 571 245 182 364 303 83 183 106 121 126 121 762 182 1554 478 0 0 243 33 1251 1156 598 1193 547 0 0 0 0 0 0 0 0 30 30 7 687 1701 823 800 1012 2015 1211 1588 1600 642 1284 1011 1534 1244 1525 1178 1367 709 1181 750 1157 959 1528 1327 1391 866 688 761 628 914 682 836 987 1138 680 1128 583 281 265 382 447 458 611 610 612 457 617 619 626 679 761 239 272 270 265 278 320 304 274 230 204 244 299 304 399 409 450 460 437 468 492 458 446 428 454 437 402 450 372 344 335 335 361 324 336 284 277 303 270 305 169 159 149 91 42 0 0 0 0 0 0 0 0 0 0 0 0 0 0 0 0 0 0 0 0 0 0 0 0 0 0 0 0 0 0 0 0 0 0 0 7 12 69 133 156 197 165 173 172 151 174 151 164 96 124 26 0 0 0 0 0 0 0 0 0 183 0 0 0 0 0 0 0 0 0 0 0 0 0 0 0 0 0 0 0 0 0 0 0 0 0 0 0 0 0 0 0 0 0 0 0 0 0 0 0 307 0 34 0 0 0 0 0 0 0 0 0 0 0 0 0 0 0 0 0 0 0 0 0 0 0 0 0 0 0 0 0 0 0 0 0 0 0 0 0 0 0 0 0 0 0 0 0 0 0 0 0 0 0 0 0 0 0 0 0 0 0 0 0 0 0 0 0 0 0 0 0 0 0 0 0 0 0 0 0 0 0 0 0 0 0 0 0 0 0 0 0 0 0 0 0 0 0 0 0 0 280 0 465 1331 1250 1220 1170 658 396 140 500 200 309 300 263 300 240 348 325 204 179 67 59 33 58 20 14 0 0 0 0 0 0 0 29 61 23 32 0 0 0 0 0 0 0 0 0 0 0 20 32 1 16 1 41 30 88 147 218 227 214 151 134 110 110 123 153 143 142 178 145 178 193 189 151 139 165 170 172 165 155 164 151 170 163 177 152 170 139 219 197 202 186 219 149 157 193 213 187 133 144 152 124 145 496 298 781 577 243 169 98 85 62 64 101 75 67 70 53 39 51 57 64 71 54 48 35 46 87 80 90 65 63 55 77 54 83 66 58 91 95 66 90 62 53 37 32 51 64 69 93 110 112 92 80 88 135 141 142 124 146 153 176 173 139 157 132 89 157 77 162 395 358 375 636 639 792 662 602 576 570 604 317 556 458 436 342 380 342 337 312 318 316 303 512 357 399 378 392 493 445 391 360 349 326 369 470 383 382 406 364 387 396 427 406 317 207 386 397 443 551 336 146 284 309 472 405 188 420 276 337 376 548 486 584 524 448 505 444 520 587 545 480 439 534 470 406 344 224 287 311 232 321 224 278 365 224 286 240 366 281 397 702 511 594 753 452 673 546 804 822 615 614 261 508 626 879 449 592 238 751 406 391 208 217 370 206 566 905 300 350 599 353 468 520 645 273 408 0 0 0 0 0 0 0 0 0 0 0 0 0 0 242 329 289 467 69 33 56 0 0 0 83 0 0 0 0 0 0 356 0 0 0 0 0 0 0 0 0 0 0 0 0 0 0 0 0 0 0
0 0 0 0 0 0 0 0 0 0 0 0 0 0 0 0 0 0 0 0 0 0 0 0 0 0 0 14 0 0 0 0 1 4 0 0 5 64 447 447 592 550 328 115 91 119 94 182 212 350 877 974 264 578 0 0 87 558 1406 1530 261 0 0 0 404 0 0 0 0 0 0 0 0 0 0 0 0 2 332 210 0 0 1735 477 561 507 1202 1698 1764 898 2063 1370 670 1077 966 683 1195 1489 1203 1220 1013 915 611 583 737 768 824 1217 1229 1045 690 376 334 381 464 344 338 472 484 467 427 541 569 620 616 408 277 311 305 340 324 303 310 305 248 234 222 304 305 313 340 344 339 426 433 455 457 395 476 457 393 395 494 543 383 360 351 345 322 305 277 305 303 297 270 225 192 161 109 32 0 0 0 0 0 0 0 0 0 0 0 0 0 0 0 0 0 0 0 0 0 0 0 0 0 0 0 0 0 0 0 0 0 0 0 1 71 111 152 152 154 176 172 181 204 168 152 160 150 71 10 0 0 0 0 0 0 0 0 1 298 386 0 0 0 0 0 0 0 0 0 0 0 0 0 0 0 0 0 0 0 0 0 0 0 0 0 0 0 0 0 0 0 0 0 0 0 0 0 0 0 0 305 0 0 0 0 0 0 0 0 0 0 0 0 0 0 0 0 0 0 0 0 0 0 0 0 0 0 0 0 0 0 0 0 0 0 0 0 0 0 0 0 0 0 0 0 0 0 0 0 0 0 0 0 0 0 0 0 0 0 0 0 0 0 0 0 0 0 0 0 0 0 0 0 0 0 0 0 0 0 0 0 0 0 0 0 0 0 0 0 0 0 0 0 0 0 0 0 0 40 980 833 1110 1340 1474 980 1100 650 90 320 1 101 280 100 275 211 300 261 294 287 159 85 67 47 6 14 16 0 0 0 0 0 0 0 0 10 0 0 0 0 0 0 0 0 0 0 0 22 14 1 17 10 51 29 36 56 74 115 184 207 184 140 154 168 155 127 115 111 162 184 192 186 178 151 137 135 177 173 224 167 141 203 139 157 163 202 158 221 236 233 195 176 205 184 189 175 185 152 163 166 161 182 173 142 299 503 715 509 201 214 138 42 27 95 79 65 94 69 57 71 43 42 46 38 49 37 34 32 27 83 88 57 51 61 86 49 88 95 84 76 100 106 93 104 50 93 45 44 45 60 59 57 80 67 125 130 150 122 153 153 158 159 158 162 172 144 140 77 121 101 95 233 227 483 674 463 614 458 371 526 295 299 433 320 440 402 435 384 358 347 336 327 365 348 331 410 364 417 387 393 389 400 348 404 342 389 419 437 407 381 358 436 371 270 476 377 313 661 566 406 562 564 487 241 386 381 210 307 497 349 331 309 475 528 605 584 390 583 581 559 447 544 519 460 401 452 426 412 413 352 321 408 365 314 227 227 342 400 291 356 252 361 783 903 743 516 439 1175 834 772 696 434 387 369 111 150 373 167 625 206 159 248 239 229 72 56 44 77 95 274 184 469 158 693 263 140 259 23 0 0 0 0 0 0 0 0 0 0 0 0 0 541 616 352 555 38 0 0 0 0 0 101 0 0 0 0 0 0 0 0 0 0 0 0 0 0 0 0 0 0 0 0 0 0 0 0 0 0 0
0 0 0 0 0 0 0 0 0 0 0 0 0 0 0 0 0 0 0 0 0 0 0 0 0 0 0 0 0 0 0 0 0 0 0 0 29 285 120 89 610 236 45 183 90 60 62 33 14 165 262 156 0 0 0 0 103 466 1 0 0 0 0 0 0 0 0 0 0 0 0 0 0 0 0 0 0 0 0 0 0 0 730 1095 1276 1110 1305 1459 318 443 1594 1935 670 800 1525 1168 1779 1303 1644 1852 1725 1574 2028 917 970 707 1271 1258 1067 916 477 455 458 347 437 602 594 604 616 450 612 563 636 434 346 274 392 626 877 853 775 808 305 304 293 293 265 254 296 306 210 210 210 210 210 233 262 330 304 303 305 334 386 414 604 458 404 375 417 327 305 306 273 280 254 241 170 127 111 30 0 0 0 0 0 0 0 0 0 0 0 0 0 0 0 0 0 0 0 0 0 0 0 0 0 0 0 0 0 0 0 0 0 0 0 38 36 95 116 106 147 157 154 158 163 190 210 231 200 187 130 0 0 0 0 0 0 0 0 211 115 301 37 0 0 0 0 0 0 0 0 0 0 0 0 0 0 0 0 0 0 0 0 0 0 0 0 0 0 0 0 0 0 0 0 0 0 0 0 0 0 0 0 0 0 0 0 0 0 0 0 0 0 0 0 0 0 0 0 0 0 0 0 0 0 0 0 0 0 0 0 0 0 0 0 0 0 0 0 0 0 0 0 0 0 0 0 0 0 0 0 0 0 0 0 0 0 0 0 0 0 0 0 0 0 0 0 0 0 0 0 0 0 0 0 0 0 0 0 0 0 0 0 0 0 0 0 0 0 0 0 0 0 0 0 0 0 0 0 0 0 0 295 866 570 885 677 72 150 80 120 16 60 178 125 125 41 41 101 169 25 31 30 27 1 14 22 0 0 0 0 0 0 0 0 0 0 0 17 54 59 91 89 75 61 30 30 55 111 99 89 55 21 24 29 53 73 111 202 159 143 143 116 116 132 146 114 189 197 147 117 135 123 122 154 150 196 141 141 184 182 179 201 136 215 191 179 173 182 193 205 198 177 173 167 205 249 208 208 215 201 182 168 167 172 315 430 661 414 226 116 111 107 73 75 117 80 98 82 89 98 67 63 48 52 46 47 43 108 74 103 90 74 91 99 95 76 57 95 81 94 84 88 76 80 75 64 66 92 90 40 50 63 77 92 93 110 126 132 128 99 120 136 125 156 148 154 111 117 193 163 167 80 163 451 380 476 234 304 401 564 538 617 579 377 410 288 345 305 245 308 384 343 373 344 380 423 372 488 456 589 595 404 467 476 438 487 518 464 498 498 464 338 307 308 220 642 928 1168 1206 763 1161 787 795 638 696 567 449 302 396 361 484 386 487 608 503 549 578 492 450 509 556 536 548 501 569 636 425 462 383 409 388 305 299 318 374 378 522 497 288 411 482 438 373 597 894 844 487 649 688 717 476 389 368 296 36 0 0 0 0 0 0 363 0 198 119 0 207 0 0 0 0 0 0 290 180 143 14 317 75 0 0 0 0 0 0 0 0 0 0 65 347 686 1119 374 523 11 0 0 0 0 0 0 0 0 0 0 0 0 0 0 0 0 0 0 0 0 0 0 0 0 0 0 0 0 0 0 0 0 0
0 0 0 0 0 0 0 0 0 0 0 0 0 0 0 0 0 0 0 0 0 0 0 0 0 0 0 0 0 0 0 0 0 0 0 0 0 15 0 0 0 4 0 29 37 0 45 92 159 667 792 248 578 0 0 0 0 0 0 0 0 0 0 0 0 0 0 0 0 0 0 0 0 0 0 0 0 0 0 0 0 0 0 0 122 1341 601 853 731 0 670 1871 447 61 873 780 833 1131 1194 904 1231 1656 1500 1459 1222 637 1428 1992 1407 1509 1496 701 426 396 356 335 454 500 461 378 364 344 332 351 368 361 452 525 812 886 643 303 247 227 247 210 212 211 210 245 297 311 349 351 457 539 431 325 292 399 350 412 404 451 383 419 371 358 325 307 305 280 272 253 252 247 198 168 80 40 3 0 0 0 0 0 0 0 0 0 0 0 0 0 0 0 0 0 0 0 0 0 0 0 0 0 0 0 0 0 0 0 1 19 34 70 130 145 152 150 147 225 205 203 216 205 206 206 176 307 0 92 10 0 0 0 0 0 96 305 685 914 618 566 0 0 0 0 0 0 0 0 0 0 0 0 0 0 0 0 0 0 0 0 0 0 0 0 0 0 0 0 0 0 0 0 0 0 0 0 0 0 0 0 0 0 0 0 0 0 0 0 0 0 0 0 0 0 0 0 0 0 0 0 0 0 0 0 0 0 0 0 0 0 0 0 0 0 0 0 0 0 0 0 0 0 0 0 0 0 0 0 0 0 0 0 0 0 0 0 0 0 0 0 0 0 0 0 0 0 0 0 0 0 0 0 0 0 0 0 0 0 0 1 0 0 0 0 0 0 0 0 0 0 0 0 0 0 0 0 0 280 640 825 960 645 580 240 60 0 0 0 0 134 201 41 41 54 113 170 147 55 87 27 1 0 0 0 0 0 0 0 0 0 0 11 0 10 23 57 64 74 79 75 17 17 91 53 65 78 55 45 41 37 70 97 77 186 177 168 174 131 116 102 119 113 94 176 149 139 166 159 96 203 265 147 156 207 180 180 190 138 166 127 164 172 220 173 179 149 162 165 216 192 213 288 257 257 185 210 202 136 103 187 187 324 393 487 324 175 174 111 74 82 100 111 127 88 65 89 84 73 85 54 43 46 70 31 61 99 86 80 90 88 75 75 77 79 93 115 101 108 88 112 122 70 101 94 71 82 93 88 43 47 49 90 76 88 94 111 93 97 88 96 97 103 175 187 175 179 164 182 175 115 232 229 453 615 508 415 348 363 348 246 199 356 231 172 255 416 418 317 296 300 247 204 329 404 490 593 539 549 581 461 491 439 463 445 584 394 463 423 390 504 541 790 858 634 982 793 957 750 758 700 406 601 257 531 499 262 494 336 549 572 461 767 611 679 617 391 475 797 521 424 444 356 443 419 532 424 367 212 361 260 375 532 601 468 377 708 571 452 506 1103 690 492 682 650 837 596 744 169 274 0 0 0 0 0 0 0 0 0 0 0 0 0 0 0 0 0 0 0 0 0 0 0 0 0 0 0 0 0 0 0 0 0 0 0 0 46 346 362 743 443 51 37 0 0 0 0 0 0 0 0 0 0 0 0 0 0 0 0 0 0 0 0 0 0 0 0 0 0 0 0 0 0 0 0 0 0
0 0 0 0 0 0 0 0 0 0 0 0 0 0 0 0 0 0 0 0 0 0 0 0 0 0 0 0 0 0 0 0 0 0 0 0 0 0 0 0 0 0 0 0 0 27 60 137 399 715 772 0 0 0 424 70 0 0 0 0 0 0 0 0 0 0 0 0 0 0 0 0 0 0 0 0 0 0 0 0 0 0 0 0 0 0 0 0 0 98 0 243 1189 610 565 1550 897 1089 658 1501 1184 1486 1589 1676 1505 1764 1501 2101 1725 1551 1828 982 914 694 620 487 486 435 428 472 503 543 521 414 378 337 336 300 269 270 285 243 241 248 257 240 219 256 304 309 307 412 447 511 458 585 479 337 335 471 550 461 422 393 475 461 408 350 414 413 323 333 305 299 318 284 244 187 153 102 64 35 39 10 0 0 0 0 0 0 0 0 0 0 0 0 0 0 0 0 0 0 0 0 0 0 0 0 0 0 0 0 0 0 0 20 170 154 160 162 165 203 205 180 157 160 164 152 165 82 159 174 150 0 1 60 98 132 241 304 580 751 535 282 130 0 0 0 0 0 0 0 0 0 0 0 0 0 0 0 0 0 0 0 0 0 0 0 0 0 0 0 0 0 0 0 0 0 0 0 0 0 0 0 0 0 0 0 0 0 0 0 0 0 0 0 0 0 0 0 0 0 0 0 0 0 0 0 0 0 0 0 0 0 0 0 0 0 0 0 0 0 0 0 0 0 0 0 0 0 0 0 0 0 0 0 0 0 0 0 0 0 0 0 0 0 0 0 0 0 0 0 0 0 0 0 139 0 0 0 182 149 253 0 0 0 0 0 0 0 0 0 0 0 0 0 0 0 0 0 0 0 0 3 160 217 100 0 0 0 0 0 0 43 68 108 125 140 183 101 145 111 39 0 0 0 0 0 0 0 0 0 0 0 39 6 0 0 0 20 75 71 53 76 42 36 103 119 70 62 48 17 1 27 61 143 169 172 144 150 195 145 150 153 183 139 94 94 141 121 103 108 209 207 166 186 143 172 130 91 125 123 129 131 174 142 150 150 170 139 181 172 128 158 168 195 293 227 235 152 198 184 103 103 115 239 269 345 476 241 184 172 166 107 134 120 91 105 110 79 56 89 70 65 61 49 83 95 92 87 89 91 95 88 103 92 104 100 150 111 109 99 91 113 119 139 111 107 76 102 100 102 93 83 58 45 84 115 91 114 140 138 164 156 142 150 156 122 181 150 167 195 180 198 189 176 213 342 184 229 238 371 461 322 365 329 373 322 351 254 340 368 390 304 312 264 363 537 470 488 548 444 479 500 539 447 438 371 450 480 551 525 452 355 526 610 958 1052 993 895 872 641 1149 1493 725 580 426 670 1251 898 982 652 550 694 754 917 719 564 691 651 822 918 1112 1025 478 884 759 991 1000 695 728 1120 927 727 511 556 660 510 460 722 409 613 697 432 747 707 672 733 859 539 237 0 0 0 0 0 0 0 0 0 0 0 0 0 0 0 0 0 0 0 0 0 0 0 0 0 0 0 0 0 0 0 0 0 0 0 0 0 139 122 498 1074 456 25 0 0 0 0 0 0 0 0 0 0 0 0 0 0 0 0 0 0 0 0 0 0 0 0 0 0 0 0 0 0 0 0 0 0 0 0
0 0 0 0 0 0 0 0 0 0 0 0 0 0 0 0 0 0 0 0 0 0 0 0 0 0 0 0 0 0 0 0 0 0 0 0 0 0 0 0 0 0 0 0 0 16 60 166 203 0 0 0 313 1 637 0 0 0 0 0 0 0 0 0 0 0 0 0 0 0 0 0 0 0 0 0 0 0 0 0 0 0 0 0 0 0 0 0 0 43 243 182 0 719 1372 1742 729 1861 2373 1796 1138 1986 1739 1453 1118 1589 2101 1541 962 1081 1764 2030 1554 797 731 872 807 635 613 693 923 727 580 568 483 381 377 732 730 362 395 448 565 640 676 730 332 288 325 456 460 590 585 605 598 503 491 482 487 573 464 454 402 372 339 337 337 365 394 343 307 308 262 295 292 281 258 183 155 168 131 74 60 25 2 0 0 0 0 0 0 0 0 0 0 0 0 0 0 0 0 0 0 0 0 0 0 0 0 0 0 0 0 0 0 0 299 152 152 212 296 269 308 152 197 288 320 309 273 163 175 229 153 74 152 153 235 279 305 322 596 618 577 494 365 182 0 0 0 0 0 0 0 0 0 0 0 0 0 0 0 0 0 0 0 0 0 0 0 0 0 0 0 0 0 0 0 0 0 0 0 0 0 0 0 0 0 0 0 0 0 0 0 0 0 0 0 0 0 0 0 0 0 0 0 0 0 0 0 0 0 0 0 0 0 0 0 0 0 0 0 0 0 0 0 0 0 0 0 0 0 0 0 0 0 0 0 0 0 0 0 0 0 0 0 0 0 0 0 0 0 0 0 0 0 1 0 0 0 632 440 153 0 0 0 0 0 0 0 0 0 0 0 0 0 0 0 0 0 0 0 0 0 0 0 0 0 0 0 0 0 0 0 36 130 196 211 253 144 264 286 164 97 0 0 0 0 56 0 0 0 0 0 0 0 0 0 0 0 75 60 52 64 91 143 108 49 43 41 82 64 96 67 36 47 216 231 189 169 148 166 152 154 136 156 136 129 133 126 119 97 119 145 167 149 136 117 97 135 155 90 107 130 147 165 132 123 115 254 229 157 151 160 244 206 172 195 174 192 205 177 178 181 103 181 245 370 354 286 348 237 237 194 137 138 96 82 85 65 77 98 79 49 48 47 53 41 40 64 62 64 62 57 112 91 80 102 121 141 119 119 120 113 146 103 150 124 89 120 90 132 111 124 123 99 85 111 49 65 97 75 129 149 169 185 153 157 181 171 177 194 194 206 213 171 222 116 206 145 265 146 283 296 350 329 370 412 447 271 294 321 270 432 373 372 404 590 496 528 524 544 566 493 496 617 465 284 517 526 600 967 830 897 776 1043 925 920 877 1050 655 358 828 496 1272 1190 1236 1268 1102 1162 852 879 1250 1193 964 911 924 760 717 754 1205 1200 1158 1221 1079 928 847 889 1434 1144 569 602 306 800 1045 753 871 491 606 529 569 572 547 324 353 340 1098 832 1066 942 690 0 0 0 0 0 0 0 0 0 0 0 0 0 0 0 0 0 0 0 0 0 0 0 0 0 0 0 0 0 0 0 0 0 0 3 78 73 38 108 310 506 901 325 13 11 50 462 0 0 0 0 0 0 0 0 0 0 0 0 0 0 0 0 0 0 0 0 0 0 0 0 0 0 0 0 0 0 0 0 0
0 0 0 0 0 0 0 0 0 0 0 0 0 0 0 0 0 0 0 0 0 0 0 0 0 0 0 0 0 0 0 0 0 0 0 0 0 0 0 0 0 0 0 12 29 25 570 0 0 0 0 301 766 1 0 0 0 0 0 0 0 0 0 0 0 0 0 0 0 0 0 0 0 0 0 0 0 0 0 0 0 0 0 0 0 0 0 0 32 975 0 0 0 570 1171 1784 1032 1556 2027 1229 1769 1125 1559 1764 1418 1342 1801 1768 1806 691 1252 1853 1935 1127 1104 1013 869 756 764 773 758 935 902 731 671 411 457 575 821 463 560 790 710 758 531 509 264 397 502 522 569 468 565 490 487 485 545 551 526 490 460 455 407 337 337 337 374 335 329 306 305 283 258 259 244 251 213 186 165 154 189 118 88 51 7 0 0 2 2 0 0 0 0 0 0 0 0 0 0 0 0 0 0 0 0 0 0 0 0 0 0 0 0 0 0 0 0 172 201 181 181 254 304 305 310 374 181 233 304 201 302 1 302 173 245 158 284 328 305 177 502 499 551 601 631 18 0 0 0 0 0 0 0 0 0 0 0 0 0 0 0 0 0 0 0 0 0 0 0 0 0 0 0 0 0 0 0 0 0 0 0 0 0 0 0 0 0 0 0 0 0 0 0 0 0 0 0 0 0 0 0 0 0 0 0 0 0 0 0 0 0 0 0 0 0 0 0 0 0 0 0 0 0 0 0 0 0 0 0 0 0 0 0 0 0 0 0 0 0 0 0 0 0 0 0 0 0 0 0 0 0 0 0 0 0 0 0 67 85 529 290 630 557 570 253 66 0 0 0 0 0 0 0 0 0 0 0 0 0 0 0 0 0 0 0 0 0 0 0 4 31 0 0 0 83 143 159 179 175 242 298 164 46 0 0 0 0 0 0 0 0 0 0 35 10 143 1 0 0 82 161 170 184 130 122 87 79 83 115 94 86 89 69 90 283 237 239 314 252 156 173 155 133 146 123 125 154 189 172 107 140 137 115 157 161 131 90 142 135 141 117 155 156 155 123 136 188 138 152 128 72 138 140 157 195 261 165 146 145 100 160 241 201 183 271 230 312 333 334 372 263 254 215 189 138 149 131 146 144 118 81 60 60 55 56 82 86 83 90 92 97 73 94 70 82 64 65 54 112 126 137 144 129 130 130 138 136 132 128 137 140 135 93 88 89 108 119 115 54 138 146 146 103 127 136 108 189 178 201 203 198 174 192 251 212 240 201 329 259 241 239 264 238 189 302 316 254 332 297 407 423 416 466 522 425 548 366 354 386 566 543 635 549 579 534 575 421 582 1073 987 862 1017 1180 1046 767 907 951 619 1376 1076 923 1402 1601 1337 1379 1933 2073 1741 1069 1236 1473 1299 1192 567 1009 1018 1017 736 652 853 954 1209 562 994 1089 1594 888 868 997 991 1116 1105 319 714 1005 740 549 666 758 564 429 809 651 829 1228 838 480 472 0 0 0 0 0 0 0 0 0 0 0 0 0 0 0 0 0 0 0 0 0 0 0 0 0 0 0 0 0 0 0 0 0 0 0 0 172 294 182 228 288 241 769 489 152 67 243 38 0 0 0 0 0 0 0 0 0 0 0 0 0 0 0 0 0 0 0 0 0 0 0 0 0 0 0 0 0 0 0 0 0 0
0 0 0 0 0 0 0 0 0 0 0 0 0 0 0 0 0 0 0 0 0 0 0 0 0 0 0 0 0 0 0 0 0 0 0 0 0 0 0 0 0 9 87 245 94 0 0 0 0 0 0 0 0 0 0 0 0 0 0 0 0 0 0 0 0 0 0 0 0 0 0 0 0 0 0 0 0 0 0 0 0 0 0 0 0 0 0 0 0 0 681 121 67 54 206 243 1065 253 1641 1000 1496 979 804 1042 820 1482 1698 1809 1860 904 878 1708 1874 1295 1130 822 762 746 658 752 891 1005 824 768 689 543 620 688 640 551 689 790 651 529 495 513 433 335 466 462 523 457 432 457 457 482 530 497 523 493 457 381 422 414 337 342 336 368 307 264 281 288 283 267 298 246 246 207 181 157 114 72 42 48 22 28 35 59 37 27 21 13 5 0 0 0 0 0 0 0 0 0 0 0 0 0 0 0 0 0 0 1 0 0 0 0 0 171 172 302 258 309 297 250 304 291 369 214 323 350 317 151 155 170 288 304 322 303 329 418 292 535 608 37 523 144 232 0 0 0 0 0 0 0 0 0 0 0 0 0 0 0 0 0 0 0 0 0 0 0 0 0 0 0 0 0 0 0 0 0 0 0 0 0 0 0 0 0 0 0 0 0 0 0 0 0 0 0 0 0 0 0 0 0 0 0 0 0 0 0 0 0 0 0 0 0 0 0 0 0 0 0 0 0 0 0 0 0 0 0 0 0 0 0 0 0 0 0 0 0 0 0 0 0 0 0 0 0 0 0 0 0 0 0 0 0 0 0 3 0 395 447 227 136 68 0 0 0 0 0 0 0 0 0 0 0 0 0 0 0 0 0 0 0 0 0 0 7 5 54 35 0 0 0 0 6 199 148 118 134 135 122 3 0 0 0 0 0 0 0 0 0 55 88 67 138 76 8 46 70 92 102 94 102 138 132 102 122 197 189 129 88 105 193 208 226 218 243 231 200 148 166 122 139 127 127 136 176 178 164 127 124 103 116 114 133 85 125 120 110 94 67 93 95 106 132 156 181 159 143 147 76 181 115 171 106 204 129 178 128 220 242 188 165 326 196 306 374 356 542 318 237 234 208 167 163 156 106 140 127 89 67 53 95 135 125 114 107 112 85 91 64 130 107 114 123 100 78 72 58 119 144 145 114 106 102 97 127 140 149 136 135 137 138 126 124 106 98 50 75 167 147 124 158 126 172 196 184 225 231 234 219 275 292 299 324 270 279 366 474 296 251 301 304 292 290 202 424 351 407 527 502 426 394 597 593 419 536 551 700 636 481 444 476 655 361 405 1152 1303 1183 969 1049 1260 1431 1333 1587 1434 1525 1795 1179 961 1693 1278 1740 2174 768 996 1497 1812 1785 1137 873 390 823 848 1094 1375 1336 914 801 902 884 879 1177 1231 1308 643 571 1750 975 1039 1008 1019 938 933 1374 961 935 710 552 556 617 557 1133 942 199 384 0 0 0 0 0 0 0 0 0 0 0 0 0 0 0 0 0 0 0 0 0 0 0 0 0 0 0 0 0 0 0 0 0 0 0 64 45 68 206 307 428 718 1474 242 39 2881 500 255 90 315 0 0 0 0 0 0 0 0 0 0 0 0 0 0 0 0 0 0 0 0 0 0 0 0 0 0 0 0 0 0 0 0 0
0 0 0 0 0 0 0 0 0 0 0 0 0 0 0 0 0 0 0 0 0 0 0 0 0 0 0 0 0 0 0 0 0 0 0 0 0 0 0 44 490 563 0 0 0 0 0 0 0 0 0 0 0 0 0 0 0 0 0 0 0 0 0 0 0 0 0 0 0 0 0 0 0 0 0 0 0 0 0 0 0 0 0 0 0 0 0 0 0 0 0 160 0 294 0 148 610 710 760 1525 1154 677 500 1525 1210 1526 1556 1167 1537 1223 831 613 1539 975 672 853 679 665 548 602 612 679 623 647 655 561 664 702 664 661 561 551 545 625 564 562 721 716 481 476 495 458 446 421 406 457 446 482 459 447 457 455 440 338 427 386 411 329 285 282 266 305 282 274 268 207 189 189 181 154 152 133 101 56 59 73 121 152 152 163 131 80 53 16 1 0 0 0 0 0 0 0 0 0 0 0 0 0 0 0 1 0 0 0 0 0 0 105 152 275 237 237 294 348 408 472 449 346 345 427 414 318 322 271 604 353 468 375 428 591 325 441 342 332 410 221 183 0 0 0 0 0 0 0 0 0 0 0 0 0 0 0 0 0 0 0 0 0 0 0 0 0 0 0 0 0 0 0 0 0 0 0 0 0 0 0 0 0 0 0 0 0 0 0 0 0 0 0 0 0 0 0 0 0 0 0 0 0 0 0 0 0 0 0 0 0 0 0 0 0 0 0 0 0 0 0 0 0 0 0 0 0 0 0 0 0 0 0 0 0 0 0 0 0 0 0 0 0 0 0 0 0 0 0 0 0 0 0 0 172 276 58 66 88 0 0 0 0 0 0 0 0 0 0 0 0 0 0 0 0 0 0 0 0 0 0 4 49 90 49 9 0 0 0 0 7 101 65 10 1 0 5 0 0 0 0 0 0 0 0 0 0 52 143 125 106 126 79 63 72 94 124 90 110 159 190 138 135 165 167 147 132 148 173 220 215 236 226 222 210 227 155 225 192 192 214 200 134 179 193 153 97 119 126 110 114 98 140 133 94 70 66 193 128 108 66 74 185 132 161 150 205 89 138 203 86 143 189 60 129 178 133 190 243 313 428 240 265 305 418 457 243 233 150 158 147 109 135 87 120 134 68 109 140 133 135 119 131 91 89 74 111 115 80 101 113 101 101 106 65 137 123 115 108 107 98 126 123 127 125 133 137 144 158 143 132 125 111 140 97 212 178 257 169 190 141 209 290 219 322 370 305 340 347 482 283 149 422 242 419 312 253 262 303 395 366 326 346 306 351 320 685 406 477 401 437 585 433 577 556 675 635 749 752 569 441 499 1444 1364 1274 1791 1794 851 525 684 960 1214 2076 903 1835 1620 945 749 2084 1817 1959 1678 1059 1236 1288 1139 975 1155 1112 558 854 711 827 1266 903 1028 924 855 898 1231 923 773 710 1339 907 1393 1222 897 883 1206 1194 667 974 801 869 558 927 734 1022 35 0 0 0 0 0 0 0 0 0 0 0 0 0 0 0 0 0 0 0 0 0 0 0 0 0 0 0 0 0 0 0 0 0 0 0 0 0 67 91 371 434 687 894 754 111 1084 964 146 159 46 0 0 0 0 0 0 0 0 0 0 0 0 0 0 0 0 0 0 0 0 0 0 0 0 0 0 0 0 0 0 0 0 0 0 0
0 0 0 0 0 0 0 0 0 0 0 0 0 0 0 0 0 0 0 0 0 0 0 0 0 0 0 0 0 0 0 0 0 0 0 0 3 15 0 60 20 0 0 0 0 0 0 0 0 0 0 0 0 0 0 0 0 0 0 0 0 0 0 0 0 0 0 0 0 0 0 0 0 0 0 0 0 0 0 0 0 0 0 0 0 0 0 0 0 0 0 0 202 23 609 0 0 810 61 975 1649 456 579 1262 1380 1670 1764 1459 1466 1493 1486 1205 759 1216 1284 1061 883 807 686 769 670 683 582 392 559 594 655 655 690 661 655 583 573 577 563 641 701 616 483 533 533 548 452 432 421 394 450 426 458 408 446 422 426 396 325 299 296 304 304 303 304 266 265 246 245 207 199 236 199 169 152 129 96 99 130 67 151 124 135 148 152 104 84 44 10 2 0 0 0 0 0 0 0 0 0 0 0 0 0 0 0 0 0 0 0 0 152 161 203 303 306 304 311 339 407 429 502 339 417 561 527 479 306 490 404 374 368 383 421 592 293 418 478 337 304 84 148 221 0 0 0 0 0 0 0 0 0 0 0 0 0 0 0 0 0 0 0 0 0 0 0 0 0 0 0 0 0 0 0 0 0 0 0 0 0 0 0 0 0 0 0 0 0 0 0 0 0 0 0 0 0 0 0 0 0 0 0 0 0 0 0 0 0 0 0 0 0 0 0 0 0 0 0 0 0 0 0 0 0 0 0 0 0 0 0 0 0 0 0 0 0 0 0 0 0 0 0 0 0 0 0 0 0 0 0 0 0 37 0 0 318 65 152 170 447 46 0 0 0 0 0 0 0 0 0 0 0 0 0 0 0 0 0 0 0 0 1 27 123 1 0 0 0 0 44 0 72 161 11 0 0 0 0 0 0 0 0 0 0 0 0 0 49 122 162 122 141 88 43 72 100 127 146 147 137 137 122 149 158 156 174 153 188 170 187 182 219 233 210 189 243 189 255 203 183 158 159 137 110 121 135 113 150 97 92 137 140 127 115 146 101 84 123 176 96 190 60 110 104 145 98 163 133 143 132 68 65 90 79 100 85 160 212 236 333 318 278 290 329 337 482 239 207 176 160 182 148 142 111 142 130 108 119 124 135 134 105 121 74 130 114 132 125 129 112 115 96 100 94 156 119 128 119 118 114 128 132 131 130 114 125 131 151 156 139 126 112 76 158 164 228 267 224 231 255 186 175 257 239 295 280 361 304 574 466 615 322 400 395 344 357 317 360 430 424 393 269 327 348 327 442 474 499 401 500 545 489 496 637 669 868 790 461 1126 754 454 849 1208 700 463 472 821 934 1304 1538 2035 1020 2200 1275 1898 1021 883 865 1633 761 1509 1679 1411 1648 1331 1028 940 762 839 866 542 663 775 999 891 1056 908 1072 826 1054 1023 1169 1022 1184 1338 1294 1370 1011 1522 1449 1200 952 1737 1243 1089 968 1222 912 412 0 0 0 0 0 0 0 0 0 0 0 0 0 0 0 0 0 0 0 0 0 0 0 0 0 0 0 0 0 0 0 0 0 0 0 0 0 9 56 143 410 1622 1326 524 375 44 1406 711 703 346 0 0 0 0 0 0 0 0 0 0 0 0 0 0 0 0 0 0 0 0 0 0 0 0 0 0 0 0 0 0 0 0 0 0 0 0
0 0 0 0 0 0 0 0 0 0 0 0 0 0 0 0 0 0 0 0 0 0 0 0 0 0 0 0 0 0 0 0 0 0 31 250 60 0 37 0 0 0 0 0 0 0 0 0 0 0 0 0 0 0 0 0 0 0 0 0 0 0 0 0 0 0 0 0 0 0 0 0 0 0 0 0 0 0 0 0 0 0 0 0 0 0 0 0 0 0 0 0 0 182 426 488 148 365 731 853 761 1045 1081 1013 627 979 792 879 1284 923 997 1201 929 731 1039 1585 1158 1271 906 891 774 744 676 650 753 652 681 669 611 614 576 609 621 626 733 613 692 693 682 704 691 614 487 441 421 466 385 392 395 372 396 360 390 395 307 308 295 314 303 282 291 274 243 195 181 192 196 241 203 161 149 153 181 148 123 121 124 123 112 122 92 136 123 39 75 104 109 30 27 1 0 0 0 0 0 0 0 0 0 0 0 0 0 0 0 163 152 249 308 304 305 326 343 396 454 427 427 456 526 448 484 498 345 353 619 470 501 609 601 374 438 418 529 458 426 424 225 203 134 1 0 0 0 0 0 0 0 0 0 0 0 0 0 0 0 0 0 0 0 0 0 0 0 0 0 0 0 0 0 0 0 0 0 0 0 0 0 0 0 0 0 0 0 0 0 0 0 0 0 0 0 0 0 0 0 0 0 0 0 0 0 0 0 0 0 0 0 0 0 0 0 0 0 0 0 0 0 0 0 0 0 0 0 0 0 0 0 0 0 0 0 0 0 0 0 0 0 0 0 0 0 0 0 0 0 39 0 0 0 0 102 457 431 298 315 271 175 0 0 0 0 0 0 0 0 0 0 0 0 0 0 0 0 0 0 0 0 4 40 0 85 21 5 29 17 0 0 0 0 0 0 0 0 0 0 0 0 0 0 0 0 0 7 65 70 56 115 89 77 76 138 156 165 134 141 140 162 122 130 168 160 183 158 202 255 210 229 243 274 250 243 204 198 201 188 192 137 126 152 157 111 114 143 141 103 141 161 158 185 153 145 187 173 168 138 93 198 175 87 54 54 131 102 148 218 158 203 92 209 125 132 126 146 301 501 356 356 322 519 696 326 290 204 186 182 150 141 157 151 134 109 170 159 131 131 150 135 138 92 134 121 128 121 117 117 117 133 115 125 124 100 112 116 106 106 108 108 132 140 138 123 128 155 166 164 129 162 168 190 200 243 210 183 245 405 495 588 799 623 396 532 451 468 350 209 624 544 729 479 480 309 335 346 465 689 348 568 331 463 399 496 401 426 491 495 515 596 492 572 926 879 788 1144 1008 857 472 719 1756 450 908 1577 1696 1407 2010 1419 1460 1197 1076 1464 1588 1059 916 738 1036 839 861 980 1069 863 1063 683 908 822 614 587 870 628 704 807 651 574 607 682 557 624 580 674 731 560 965 978 1322 1403 1108 1018 1512 666 859 1064 705 720 761 0 0 0 0 0 0 0 0 0 0 0 0 0 0 0 0 0 0 0 0 0 0 0 0 0 0 0 0 0 0 0 0 0 0 0 0 0 0 0 30 170 264 571 798 753 736 208 942 1083 1317 451 0 0 0 0 0 0 0 0 1 1 0 0 0 0 0 0 0 0 0 0 0 0 0 0 0 0 0 0 0 0 0 0 0 0 0 0 0
0 0 0 0 0 0 0 0 0 0 0 0 0 0 0 0 0 0 0 0 0 0 0 0 0 0 0 0 0 0 0 292 988 0 0 0 0 0 0 0 0 0 0 0 0 0 0 0 0 0 0 0 0 0 0 0 0 0 0 0 0 0 0 0 0 0 0 0 0 0 0 0 0 0 0 0 0 0 0 0 0 0 0 0 0 0 0 0 0 0 0 0 0 0 365 60 0 0 121 457 1069 1437 147 239 685 428 1244 708 977 717 593 848 1016 1111 903 1113 1470 1170 999 1209 876 840 710 668 754 709 745 890 1312 1006 762 626 687 606 556 616 571 629 668 609 619 614 753 485 450 459 468 513 464 422 443 740 348 335 331 338 305 314 305 299 268 242 223 186 187 198 212 194 186 179 178 181 182 168 172 170 152 153 137 127 120 119 140 116 88 84 61 55 29 53 100 62 62 63 45 0 0 0 0 0 0 1 27 100 138 155 204 296 308 315 315 326 354 410 375 385 405 507 588 581 527 528 588 621 485 678 604 609 568 500 521 471 397 565 360 336 566 157 135 194 139 60 26 1 0 0 0 0 0 0 0 0 0 0 0 0 0 0 0 0 0 0 0 0 0 0 0 0 0 0 0 0 0 0 0 0 0 0 0 0 0 0 0 0 0 0 0 0 0 0 0 0 0 0 0 0 0 0 0 0 0 0 0 0 0 0 0 0 0 0 0 0 0 0 0 0 0 0 0 0 0 0 0 0 0 0 0 0 0 0 0 0 0 0 0 0 0 0 0 0 0 0 0 113 58 421 63 203 181 0 0 0 0 69 203 462 297 73 0 0 0 0 0 0 0 0 0 0 0 0 0 0 0 0 0 0 0 3 35 0 0 9 1 5 0 0 0 0 0 0 0 0 0 0 0 32 34 0 0 0 50 15 18 58 41 65 81 114 125 124 143 131 153 192 184 182 189 158 156 173 173 147 149 188 170 203 225 159 213 212 172 155 159 199 214 231 149 182 151 107 121 103 141 98 155 139 145 162 152 112 139 205 117 92 180 143 106 115 95 120 95 107 177 151 317 311 187 159 289 164 161 169 99 165 370 407 418 449 886 430 392 303 256 205 189 190 188 177 167 92 185 157 147 160 143 138 152 150 148 107 135 126 121 123 114 104 92 121 127 124 98 96 106 92 92 105 117 92 124 122 132 143 163 183 171 136 174 201 342 241 255 221 244 266 207 300 1019 1147 526 391 565 591 518 409 760 624 819 943 1057 915 513 995 871 826 715 1095 971 967 427 493 513 512 530 519 442 585 633 484 755 756 494 833 857 827 859 712 957 878 450 1586 1801 1239 605 1789 1184 1407 1411 1398 1318 814 692 943 802 854 908 1060 1269 967 802 752 746 853 582 813 653 1144 919 873 569 636 540 481 695 492 434 375 377 446 449 460 519 539 815 1348 1109 1026 628 392 138 246 0 0 0 0 1 185 0 0 0 0 0 0 0 0 0 0 0 0 0 0 0 0 0 0 0 0 0 0 0 0 0 0 0 0 0 0 0 0 0 0 0 31 229 454 956 1011 339 187 215 1093 359 513 490 944 0 0 0 0 0 0 0 0 0 0 0 0 0 0 0 0 0 0 0 0 0 0 0 0 0 0 0 0 0 0 0 0 0 0 0 0
0 0 0 0 0 0 0 0 0 0 0 0 0 0 0 0 0 0 0 0 0 0 0 0 0 0 0 0 0 0 0 0 0 0 0 0 0 0 0 0 0 0 0 0 0 0 0 0 0 0 0 0 0 0 0 0 0 0 0 0 0 0 0 0 0 0 0 0 0 0 0 0 0 0 0 0 0 0 0 0 0 0 0 0 0 0 0 0 0 0 0 0 0 0 0 0 0 0 0 150 204 470 321 850 945 934 864 945 903 1206 1070 682 836 720 742 870 723 1169 1284 1194 1336 1188 1067 1250 1217 1056 926 796 884 713 695 623 633 679 681 694 618 586 549 538 521 524 495 483 471 491 529 531 519 588 621 473 385 331 286 289 266 301 256 261 284 237 212 217 217 230 218 225 219 204 183 203 207 198 204 217 206 183 175 161 156 152 143 133 137 92 120 99 68 80 141 145 108 59 14 0 0 0 0 0 0 16 69 152 166 182 209 216 303 290 325 346 352 418 414 343 463 566 595 524 527 599 610 581 604 610 609 566 483 472 472 472 472 487 305 307 315 547 246 305 273 270 119 0 0 101 0 0 0 0 0 0 0 0 0 0 0 0 0 0 0 0 0 0 0 0 0 0 0 0 0 0 0 0 0 0 0 0 0 0 0 0 0 0 0 0 0 0 0 0 0 0 0 0 0 0 0 0 0 0 0 0 0 0 0 0 0 0 0 0 0 0 0 0 0 0 0 0 0 0 0 0 0 0 0 0 0 0 0 0 0 0 0 0 0 0 0 0 0 0 32 79 6 100 76 100 119 86 14 0 0 0 0 36 163 423 220 47 77 0 0 0 0 0 0 0 0 0 0 0 0 0 0 0 0 0 0 0 6 47 46 60 0 0 2 12 1 0 0 0 0 0 22 38 87 223 171 18 16 46 97 56 62 112 153 229 156 156 130 143 171 236 232 243 186 220 183 172 194 201 203 174 189 195 187 212 224 216 229 238 246 215 211 245 158 241 233 196 161 172 122 133 165 112 123 112 155 177 188 181 193 137 138 130 188 164 109 97 158 83 88 134 113 194 269 235 202 343 232 208 153 209 175 249 672 659 1164 557 554 408 365 276 237 201 200 183 180 90 146 129 174 152 180 158 141 134 120 123 113 158 131 123 122 133 112 121 119 119 126 94 101 99 105 89 107 116 98 108 124 147 153 202 229 191 270 296 257 236 272 325 419 267 289 317 260 259 596 750 1034 795 824 447 373 509 600 455 429 761 683 1197 1326 1170 1628 1438 1154 1322 871 1005 943 593 543 506 536 541 436 757 561 661 678 624 799 850 1030 685 748 839 1330 450 450 1230 1348 601 1159 1383 1351 1602 1073 1176 1005 923 780 941 811 911 781 1068 759 952 1504 1005 1059 804 896 827 828 657 509 435 599 496 921 1036 825 875 730 255 379 366 386 382 382 443 753 372 393 220 114 84 130 609 713 119 330 0 90 0 0 0 0 346 0 0 0 0 0 0 0 0 0 0 0 0 0 0 0 0 0 0 0 0 0 0 0 0 0 0 0 0 0 0 0 0 125 623 1342 1110 259 893 590 548 0 0 0 0 0 0 0 0 0 0 0 0 0 0 0 0 0 0 0 0 0 0 0 0 0 0 0 0 0 0 0 0 0 0 0 0 0 0 0 0
0 0 0 0 0 0 0 0 0 0 0 0 0 0 0 0 0 0 0 0 0 0 0 0 0 0 651 0 0 0 0 0 0 0 0 0 0 0 0 0 0 0 0 0 0 0 0 0 0 0 0 0 0 0 0 0 0 0 0 0 0 0 0 0 0 0 0 0 0 0 0 0 0 0 0 0 0 0 0 0 0 0 0 0 0 0 0 0 0 0 0 0 0 0 254 0 0 0 0 685 1 790 0 1219 1284 1181 797 910 1003 776 1223 1300 895 750 639 914 895 867 918 1345 1697 2142 1699 1461 1241 1231 1071 869 843 820 776 732 666 672 698 652 645 646 623 603 615 668 666 692 593 555 570 500 548 502 482 416 357 293 272 268 265 262 258 256 283 241 217 217 217 247 256 256 282 276 221 265 221 262 277 248 283 233 213 210 210 186 175 157 154 140 138 102 87 84 63 81 87 78 46 0 0 0 0 0 0 0 6 13 126 160 208 169 248 314 301 304 302 332 333 371 432 465 588 583 590 577 531 610 608 610 617 567 541 479 472 427 473 487 491 598 538 280 54 201 0 0 874 305 163 151 1 0 0 0 0 0 0 0 0 0 0 0 0 0 0 0 0 0 0 0 0 0 0 0 0 0 0 0 0 0 0 0 0 0 0 0 0 0 0 0 0 0 0 0 0 0 0 0 0 0 0 0 0 0 0 0 0 0 0 0 0 0 0 0 0 0 0 0 0 0 0 0 0 0 0 0 0 0 0 0 0 0 0 0 0 0 0 0 0 0 0 0 0 0 35 56 73 76 76 135 141 0 0 0 0 0 0 0 54 303 167 33 3 0 0 0 0 0 0 0 0 0 0 0 0 0 0 0 0 0 0 1 3 11 25 53 63 13 26 38 40 8 4 21 45 99 80 136 151 134 132 83 96 93 139 172 168 133 149 141 130 166 129 138 148 226 148 207 186 216 154 151 172 157 137 161 178 140 187 192 226 209 201 207 211 232 197 253 204 242 212 190 186 115 156 166 173 125 139 138 222 136 185 215 163 261 286 259 236 145 161 147 52 209 115 53 173 167 61 117 259 233 371 298 303 244 180 536 501 420 711 456 367 384 389 277 243 219 192 175 174 125 186 100 184 189 204 173 152 163 189 214 189 182 158 106 140 87 121 106 98 120 115 106 103 102 119 122 116 110 116 130 167 159 169 230 158 118 143 165 165 183 256 208 254 323 366 351 214 246 360 841 1167 1148 922 427 260 276 445 290 476 695 460 642 739 1728 1164 1994 2040 1658 1087 1265 1337 963 844 556 534 482 552 544 401 543 890 844 710 802 648 657 829 578 451 1090 906 488 525 1392 1506 1194 1203 1237 1079 948 896 951 1175 936 991 1021 1555 1203 758 886 867 635 538 522 458 714 384 450 362 430 658 404 421 325 354 268 219 598 672 423 579 628 726 872 1152 601 582 409 483 418 993 1682 662 352 313 6 472 0 0 40 193 276 11 0 0 0 0 0 0 0 0 0 0 0 0 0 0 0 0 0 0 0 0 0 0 0 0 0 0 0 0 0 0 0 110 503 676 841 833 443 187 12 0 0 0 0 0 0 0 0 0 0 0 0 0 0 0 0 0 0 0 0 0 0 0 0 0 0 0 0 0 0 0 0 0 0 0 0 0 0 0 0
